# This PCD file was generated using the MATLAB® pcwrite function
# from Computer Vision System Toolbox®.
# .PCD v.7 - Point Cloud Data file format
VERSION .7
FIELDS x y z rgb
SIZE 4 4 4 4
TYPE F F F F
COUNT 1 1 1 1
WIDTH 1071
HEIGHT 1
VIEWPOINT 0 0 0 1 0 0 0
POINTS 1071
DATA ascii
2.419167 0.390449 -0.264953 1.661672331e-39
3.535667 0.391149 -0.279067 1.023765817e-38
1.948500 0.405346 -0.280018 5.076873508e-39
1.952944 0.412067 -0.272809 3.969448351e-39
2.417000 0.402399 -0.265072 1.570915834e-39
3.534750 0.410618 -0.279095 1.032877620e-38
1.955235 0.430372 -0.274591 4.705570052e-39
3.529667 0.435130 -0.276453 1.005111311e-38
3.533000 0.428578 -0.280544 1.014330874e-38
1.957192 0.450549 -0.274153 5.534254524e-39
3.529400 0.452966 -0.278696 9.774886357e-39
3.531500 0.443752 -0.281985 9.958558751e-39
1.960000 0.470884 -0.273959 3.599228099e-39
3.260333 0.477881 -0.271236 2.028628258e-38
3.284000 0.479942 -0.281502 1.982710510e-38
3.528625 0.471281 -0.279278 1.069756292e-38
1.961571 0.490359 -0.274017 2.583990164e-39
3.265500 0.487202 -0.271898 2.019444708e-38
3.281857 0.492777 -0.276815 2.001077469e-38
3.292500 0.494157 -0.283800 1.982674356e-38
3.521250 0.486934 -0.279499 1.346415629e-38
1.963000 0.510779 -0.274070 2.215204842e-39
3.283428 0.509161 -0.272362 2.037847961e-38
3.293143 0.510805 -0.281576 2.019480721e-38
1.963240 0.530977 -0.273746 2.307043141e-39
3.286250 0.529080 -0.271159 2.047103397e-38
3.291500 0.530003 -0.281260 2.028700284e-38
1.964118 0.550734 -0.274111 2.307044542e-39
3.242000 0.559179 -0.280312 1.097488269e-38
3.261000 0.553882 -0.275874 2.093165198e-38
3.281308 0.546928 -0.277056 2.047103397e-38
1.964340 0.570740 -0.273730 2.491434401e-39
1.964396 0.591162 -0.273980 2.675828463e-39
1.963980 0.610954 -0.273805 2.767665361e-39
1.962907 0.630698 -0.273977 2.952058022e-39
1.961527 0.651023 -0.273967 3.321560808e-39
1.959538 0.670683 -0.274150 2.583991566e-39
1.956482 0.689986 -0.274348 3.413393502e-39
1.949000 0.720662 -0.282838 3.507389800e-39
1.956315 0.710943 -0.274408 3.414119375e-39
1.948182 0.734057 -0.279138 3.321560808e-39
1.953316 0.728738 -0.271684 3.598514838e-39
1.942537 0.750450 -0.275159 3.228646312e-39
1.950000 0.742441 -0.266798 3.503799674e-39
1.939750 0.764543 -0.276449 3.321563611e-39
3.544000 1.637843 -0.264786 2.231602417e-38
3.555500 1.652350 -0.275655 2.259117192e-38
3.561200 1.670605 -0.276039 2.277484291e-38
3.560917 1.690949 -0.274546 2.295851250e-38
3.560182 1.712008 -0.276024 2.295887264e-38
3.558111 1.729837 -0.275570 2.295851250e-38
3.563667 1.749864 -0.275401 2.295887264e-38
3.565500 1.770665 -0.275345 2.295887264e-38
3.566667 1.791114 -0.275306 2.295887264e-38
3.566000 1.810511 -0.275324 2.295815517e-38
3.562000 1.827954 -0.275449 2.055891080e-38
3.568500 1.843074 -0.278077 5.712533320e-39
3.574333 1.853128 -0.275070 7.371331587e-39
3.578200 1.870353 -0.274383 7.556075974e-39
3.420182 -1.544253 -0.254890 1.293248544e-39
3.419692 -1.528187 -0.256264 2.122650480e-39
3.418875 -1.508084 -0.255675 4.149876738e-39
3.475000 -1.502311 -0.253474 1.327796296e-38
3.505750 -1.511379 -0.256417 1.521443132e-38
3.519250 -1.511411 -0.254515 1.558249918e-38
3.539143 -1.511662 -0.252946 1.539847366e-38
3.561700 -1.509022 -0.254575 1.521444253e-38
3.582400 -1.505891 -0.256065 1.530663676e-38
3.600857 -1.502445 -0.253829 1.539919112e-38
3.614000 -1.499984 -0.245136 1.539990999e-38
3.422625 -1.493920 -0.255528 9.773807358e-39
3.439375 -1.491903 -0.254873 1.014295001e-38
3.607000 -1.498417 -0.258785 1.530663536e-38
3.620556 -1.495562 -0.253181 1.530699549e-38
3.641333 -1.487472 -0.255619 1.549174128e-38
3.646889 -1.469889 -0.255418 1.466269527e-38
3.647833 -1.455834 -0.255383 1.383221574e-38
3.652000 -1.446197 -0.255230 1.355491139e-38
3.655000 -1.430165 -0.255122 1.318613167e-38
3.655727 -1.408026 -0.255623 1.300173761e-38
3.659500 -1.389747 -0.254376 1.263367255e-38
3.655111 -1.369143 -0.255118 1.254147552e-38
3.653000 -1.349594 -0.255776 1.244892116e-38
3.651909 -1.329144 -0.254706 1.244892116e-38
3.648600 -1.304693 -0.254194 1.217269300e-38
3.650250 -1.313241 -0.256746 1.235708566e-38
3.648500 -1.293621 -0.252455 1.217233427e-38
3.650750 -1.285864 -0.256728 1.189646484e-38
3.648500 -1.261696 -0.252456 1.180462935e-38
3.650286 -1.269904 -0.256122 1.189682498e-38
3.646445 -1.249242 -0.255435 1.180462935e-38
3.643556 -1.230668 -0.255539 1.198794301e-38
3.638300 -1.210024 -0.255150 1.180355175e-38
3.633455 -1.188235 -0.256430 1.161987936e-38
3.634889 -1.169356 -0.255855 1.162023809e-38
3.636667 -1.149806 -0.255790 1.143512796e-38
3.634333 -1.128697 -0.255876 1.152696346e-38
3.631889 -1.110458 -0.255965 1.134257220e-38
3.628091 -1.088090 -0.256627 1.134257220e-38
3.631000 -1.098585 -0.250225 1.152696346e-38
3.625455 -1.067230 -0.254104 1.097379108e-38
3.625429 -1.053748 -0.254554 1.106598531e-38
3.636167 -1.045541 -0.255806 1.097379108e-38
1.885000 -0.901570 -0.246026 5.556835047e-40
1.896889 -0.904864 -0.253931 6.482378670e-40
1.890000 -0.887128 -0.263441 7.404320956e-40
1.899043 -0.888343 -0.253952 1.293604473e-39
1.903208 -0.869450 -0.254391 9.248233553e-40
1.911250 -0.862530 -0.246898 1.661665324e-39
1.904050 -0.847916 -0.255519 1.570910229e-39
1.911500 -0.840658 -0.246228 7.404306943e-40
1.908833 -0.832655 -0.257820 9.251820877e-40
1.914256 -0.831488 -0.253833 1.478353064e-39
1.906192 -0.807673 -0.255381 1.662385592e-39
1.911333 -0.805134 -0.247107 1.386161638e-39
1.906629 -0.788562 -0.254185 8.329878591e-40
1.911200 -0.796673 -0.257139 7.411523630e-40
1.903500 -0.769373 -0.254528 1.386161638e-39
1.902889 -0.750035 -0.254602 1.201411646e-39
1.899470 -0.728460 -0.255152 1.201411646e-39
1.915000 -0.725923 -0.248515 1.385444173e-39
1.898875 -0.402142 -0.257292 1.198722554e-38
1.899644 -0.389149 -0.255241 1.180463075e-38
1.908405 -0.372501 -0.257059 4.060196439e-39
1.912690 -0.365891 -0.251398 1.662032464e-39
1.909667 -0.354415 -0.262497 3.599939959e-39
1.915473 -0.348242 -0.253813 2.862014786e-39
1.920875 -0.329879 -0.254527 3.229355369e-39
1.923359 -0.309622 -0.254322 2.400314968e-39
1.926778 -0.290521 -0.255404 2.953491550e-39
1.931400 -0.283484 -0.248151 2.492154668e-39
1.929500 -0.273567 -0.260226 3.044605377e-39
1.933525 -0.268233 -0.252771 2.492150464e-39
1.936411 -0.249536 -0.254575 2.399237370e-39
1.938125 -0.228754 -0.254437 2.123009212e-39
1.940471 -0.208934 -0.253989 2.399237370e-39
1.940667 -0.189198 -0.254474 2.952051015e-39
1.943589 -0.168795 -0.253993 2.676544527e-39
1.944020 -0.148971 -0.253958 2.768377220e-39
1.946271 -0.129322 -0.254632 3.136440873e-39
1.950000 -0.120463 -0.245492 4.418902222e-39
1.945053 -0.109715 -0.256250 3.324076139e-39
1.950417 -0.107854 -0.246787 4.150962745e-39
1.946396 -0.088931 -0.256826 4.979994738e-39
1.950364 -0.092653 -0.246429 3.692502729e-39
1.947490 -0.069931 -0.255921 3.966567281e-39
1.950000 -0.067197 -0.245492 3.044248046e-39
1.946500 -0.051163 -0.257245 2.399598905e-39
1.950500 -0.045420 -0.248279 2.215207645e-39
1.946604 -0.028915 -0.256353 4.151311668e-39
1.950500 -0.034931 -0.247113 2.768396838e-39
1.946127 -0.009951 -0.255265 5.255502628e-39
1.950000 -0.000615 -0.245492 1.938619354e-39
1.942960 0.010020 -0.254259 3.690703462e-39
1.938907 0.027973 -0.255480 3.413390699e-39
1.951000 0.035781 -0.250737 1.754229496e-39
1.948000 0.041995 -0.264282 1.938266227e-39
2.447500 0.065084 -0.260705 3.782170416e-39
2.456750 0.074434 -0.256350 8.207559248e-39
2.461333 0.083009 -0.254802 6.824624800e-39
2.473500 0.089934 -0.248345 4.519376723e-39
2.446667 0.113724 -0.246724 1.477639803e-39
2.452500 0.106463 -0.247849 1.569475300e-39
2.438722 0.131847 -0.250203 1.477639803e-39
3.529000 0.133527 -0.254139 1.678248010e-38
2.429000 0.158011 -0.246665 1.109936284e-39
2.434643 0.150727 -0.253937 1.477639803e-39
3.533000 0.150424 -0.253986 1.678356190e-38
2.428200 0.172506 -0.253989 1.385804307e-39
2.431143 0.164995 -0.256173 1.477639803e-39
3.530000 0.175448 -0.254101 1.668992994e-38
3.533500 0.164421 -0.253967 1.705943133e-38
2.424300 0.189583 -0.254051 1.385804307e-39
3.529500 0.197764 -0.259705 1.622967066e-38
3.531333 0.189479 -0.254050 1.641298292e-38
2.420933 0.210525 -0.254253 1.477639803e-39
3.528200 0.212767 -0.257520 1.586088814e-38
2.418600 0.231500 -0.254395 1.569478102e-39
3.528000 0.226991 -0.258365 1.595308097e-38
3.531000 0.239748 -0.259650 1.576868690e-38
2.416960 0.250732 -0.254496 1.662031063e-39
2.416100 0.270028 -0.254548 1.662033866e-39
2.415633 0.291118 -0.254576 1.662035267e-39
2.414035 0.311731 -0.254432 1.846426527e-39
3.527000 0.309232 -0.259796 1.300209354e-38
1.945286 0.338920 -0.259929 6.827519883e-39
1.952000 0.336891 -0.257892 6.643488757e-39
2.415692 0.331257 -0.254842 1.846425125e-39
1.943435 0.350678 -0.254871 4.796693689e-39
1.951500 0.343706 -0.246250 2.074654186e-38
2.417667 0.351365 -0.254454 1.847142590e-39
1.947960 0.367520 -0.258964 4.337147667e-39
1.952032 0.372545 -0.251421 4.333917674e-39
2.418320 0.370886 -0.254415 2.031177920e-39
1.956055 0.390468 -0.254928 7.194137396e-39
2.419167 0.390453 -0.254363 1.938979488e-39
1.957885 0.410936 -0.255205 5.998475278e-39
2.407000 0.411024 -0.248081 2.585074769e-39
2.415357 0.405606 -0.253835 1.755311298e-39
1.960633 0.431044 -0.255298 3.414843846e-39
1.963653 0.450675 -0.255059 4.337514807e-39
1.964680 0.470014 -0.255143 5.719000312e-39
1.966038 0.490033 -0.255027 3.781811684e-39
1.968077 0.510697 -0.256095 3.042808913e-39
1.970000 0.511042 -0.249163 3.686020322e-39
1.967167 0.531886 -0.259008 3.783264830e-39
1.970957 0.530274 -0.249670 5.443139295e-39
1.967687 0.550051 -0.257609 5.812637878e-39
1.970944 0.552709 -0.249234 7.292113382e-39
1.968421 0.567440 -0.257243 7.288125287e-39
1.970688 0.572795 -0.252566 8.303014298e-39
1.968588 0.591235 -0.261181 5.718282847e-39
1.971529 0.590598 -0.251577 7.381412528e-39
1.967762 0.611676 -0.259875 5.441702964e-39
1.971290 0.609499 -0.250972 6.182154678e-39
1.968040 0.632157 -0.259463 5.994150871e-39
1.971714 0.629348 -0.250177 6.456929689e-39
1.967929 0.650166 -0.258866 6.084184297e-39
1.971792 0.651572 -0.249576 4.795606281e-39
1.966405 0.671017 -0.257609 5.073630903e-39
1.970353 0.668957 -0.248657 4.338595208e-39
1.966185 0.690086 -0.259250 9.312832011e-39
1.971913 0.692002 -0.249590 1.078652856e-38
1.964930 0.712923 -0.256897 7.746602119e-39
1.971611 0.707627 -0.249179 4.796688084e-39
1.957551 0.731518 -0.254345 5.993080279e-39
1.947333 0.749506 -0.258618 3.044255053e-39
1.952240 0.747592 -0.252445 3.504877272e-39
1.949000 0.763245 -0.264208 3.230802911e-39
1.951250 0.763043 -0.260044 3.691060793e-39
3.544000 1.637843 -0.256368 2.240785966e-38
3.550000 1.644751 -0.257082 2.268336615e-38
3.552778 1.654347 -0.253851 2.286703714e-38
3.550000 1.669115 -0.247711 2.286703714e-38
3.557000 1.670613 -0.256452 2.277484291e-38
3.557778 1.691438 -0.256480 2.286667841e-38
3.555917 1.711724 -0.255923 2.295887264e-38
3.561917 1.731947 -0.255700 2.295887264e-38
3.561214 1.750100 -0.256533 2.305070813e-38
3.564000 1.771028 -0.254814 2.295851250e-38
3.565909 1.790166 -0.254782 2.305070813e-38
3.571000 1.799257 -0.263850 2.305070813e-38
3.567833 1.809691 -0.251706 2.295851391e-38
3.571572 1.811720 -0.259785 2.286667841e-38
3.566333 1.831748 -0.257729 2.046635644e-38
3.571833 1.826162 -0.250607 2.304927180e-38
3.567500 1.848848 -0.250542 7.002913405e-39
3.573250 1.851542 -0.260939 7.370614122e-39
3.569333 1.871228 -0.251963 7.923419360e-39
3.575833 1.867239 -0.261794 7.830864998e-39
3.418538 -1.527562 -0.234793 1.846422323e-39
3.421875 -1.509680 -0.234015 2.306681606e-39
3.471000 -1.500231 -0.234458 1.484528727e-38
3.502000 -1.509713 -0.234148 1.530662695e-38
3.519500 -1.511537 -0.235019 1.539846525e-38
3.541556 -1.512631 -0.234970 1.530699269e-38
3.562100 -1.508660 -0.234808 1.521551733e-38
3.583000 -1.504492 -0.235017 1.521551733e-38
3.600200 -1.502281 -0.235406 1.521551873e-38
3.423875 -1.494580 -0.233920 8.483428673e-39
3.438625 -1.491511 -0.233230 1.005075438e-38
3.605500 -1.498626 -0.228303 1.521479846e-38
3.620222 -1.495393 -0.233379 1.521479706e-38
3.640200 -1.486342 -0.235979 1.539918692e-38
3.646333 -1.469621 -0.235136 1.466197921e-38
3.648500 -1.459054 -0.235041 1.383221714e-38
3.652500 -1.449338 -0.234869 1.355527152e-38
3.654375 -1.429875 -0.234789 1.318613027e-38
3.654500 -1.409578 -0.234785 1.290990071e-38
3.656312 -1.390046 -0.234707 1.254147552e-38
3.655833 -1.369466 -0.234723 1.254219439e-38
3.655133 -1.349375 -0.235336 1.235744439e-38
3.649000 -1.319959 -0.226312 1.244891976e-38
3.651500 -1.328306 -0.234913 1.244891976e-38
3.648909 -1.308837 -0.234233 1.226452850e-38
3.650000 -1.302970 -0.243688 1.189574598e-38
3.647571 -1.288667 -0.231353 1.198794301e-38
3.650333 -1.291496 -0.240771 1.198794301e-38
3.645267 -1.268474 -0.234601 1.198830174e-38
3.643750 -1.248134 -0.235245 1.198794301e-38
3.642083 -1.230070 -0.235320 1.171135612e-38
3.641187 -1.209440 -0.235356 1.171135752e-38
3.637250 -1.187625 -0.235528 1.161951922e-38
3.635667 -1.169659 -0.235594 1.171207358e-38
3.636875 -1.149886 -0.235543 1.162023809e-38
3.630000 -1.121302 -0.230067 1.152696486e-38
3.633400 -1.129502 -0.236847 1.171171485e-38
3.630000 -1.114378 -0.234106 1.180355175e-38
3.632300 -1.104833 -0.237471 1.180319162e-38
3.628428 -1.082818 -0.234670 1.161951922e-38
3.631667 -1.093055 -0.235766 1.152768373e-38
3.625900 -1.068488 -0.234286 1.134329106e-38
3.627143 -1.052703 -0.232255 1.161916049e-38
3.635750 -1.046118 -0.237761 1.115818094e-38
3.635000 -1.036468 -0.226953 1.161916049e-38
1.888000 -0.902490 -0.238673 6.478791346e-40
1.895920 -0.902272 -0.232734 6.482378670e-40
1.903397 -0.891576 -0.234953 1.662747127e-39
1.911000 -0.896054 -0.229430 1.662385592e-39
1.904809 -0.869955 -0.236539 1.109216016e-39
1.911786 -0.866951 -0.228054 1.016661654e-39
1.908289 -0.851301 -0.237050 2.214840505e-39
1.916100 -0.845425 -0.232368 9.251848903e-40
1.909500 -0.821283 -0.234757 1.478716001e-39
1.914896 -0.829100 -0.233801 1.386160237e-39
1.916475 -0.810107 -0.235117 1.109933481e-39
1.909000 -0.781516 -0.241920 1.846060788e-39
1.915739 -0.790022 -0.233805 1.108854481e-39
1.908733 -0.768985 -0.239658 1.477637001e-39
1.913923 -0.769578 -0.229333 1.109576150e-39
1.906969 -0.748836 -0.238387 1.200691379e-39
1.912952 -0.753163 -0.229416 1.017021788e-39
1.905222 -0.734399 -0.236648 1.016661654e-39
1.916227 -0.732379 -0.234107 1.293605875e-39
1.912000 -0.401459 -0.243591 1.207978271e-38
1.907429 -0.386634 -0.239106 1.198794441e-38
1.913062 -0.388009 -0.229706 1.189646765e-38
1.908154 -0.376774 -0.238962 1.208049737e-38
1.915593 -0.367726 -0.233486 5.903390171e-39
1.921130 -0.349329 -0.234881 2.399956236e-39
1.925893 -0.329977 -0.235224 2.584346094e-39
1.931750 -0.322217 -0.227348 2.491790331e-39
1.928071 -0.310694 -0.237925 2.583630031e-39
1.932679 -0.306760 -0.230166 2.584347495e-39
1.934597 -0.288430 -0.234666 2.675824259e-39
1.938017 -0.269132 -0.234301 2.399954834e-39
1.941563 -0.249583 -0.234297 2.399956236e-39
1.943632 -0.229672 -0.235105 2.399237370e-39
1.945887 -0.209042 -0.235669 2.399596102e-39
1.950000 -0.208351 -0.226849 2.308120740e-39
1.946814 -0.189880 -0.236122 2.583627228e-39
1.950857 -0.184133 -0.227524 2.491072866e-39
1.947886 -0.170601 -0.238151 2.492154668e-39
1.951000 -0.167346 -0.229679 2.307043141e-39
1.948600 -0.149574 -0.241355 2.952051015e-39
1.952000 -0.149156 -0.231620 2.491072866e-39
1.949000 -0.137207 -0.242029 2.491445611e-39
1.951940 -0.128998 -0.234544 2.583630031e-39
1.952765 -0.109679 -0.234312 2.860931582e-39
1.952315 -0.089696 -0.234866 2.954210416e-39
1.953727 -0.068979 -0.234337 3.504863259e-39
1.953400 -0.048977 -0.234674 2.768024093e-39
1.953429 -0.028744 -0.234512 3.322278273e-39
1.952571 -0.008695 -0.234593 3.044249448e-39
1.946600 0.012685 -0.235383 4.152762012e-39
1.950357 0.003561 -0.234233 4.153115139e-39
1.945000 0.023060 -0.237957 2.491432999e-39
1.951875 0.025333 -0.231327 2.030094716e-39
2.459000 0.075358 -0.235209 2.399238771e-39
2.448000 0.097477 -0.231108 1.477639803e-39
2.455333 0.089019 -0.235691 1.385445575e-39
2.471000 0.089870 -0.243966 3.044246645e-39
2.440038 0.111180 -0.234152 1.569836835e-39
2.450000 0.103688 -0.241728 1.293248544e-39
2.435055 0.129896 -0.233817 1.754229496e-39
2.427846 0.151527 -0.227914 2.583992967e-39
2.430130 0.150591 -0.237792 1.662032464e-39
2.426250 0.172012 -0.234217 2.031177920e-39
2.430000 0.163399 -0.237724 1.662393999e-39
2.420312 0.190375 -0.234858 2.491437203e-39
2.419500 0.210401 -0.234917 2.583994368e-39
2.417686 0.231154 -0.235293 2.676552934e-39
2.416097 0.250293 -0.234864 2.769467430e-39
2.415583 0.269969 -0.235184 2.953862894e-39
2.417829 0.291154 -0.235276 3.137891217e-39
2.414314 0.311218 -0.235427 3.414478107e-39
2.415781 0.331014 -0.234731 3.506675138e-39
1.948000 0.354939 -0.240123 3.043900524e-39
1.956879 0.351040 -0.233533 1.834945688e-38
2.416829 0.350974 -0.235349 3.508112870e-39
1.956420 0.370844 -0.234070 3.321199273e-39
2.416909 0.370959 -0.235035 3.692148200e-39
1.962192 0.391487 -0.234310 8.389435177e-39
2.418576 0.390615 -0.235026 3.783982295e-39
1.964088 0.410645 -0.235021 6.178184799e-39
2.405714 0.409269 -0.236642 4.153126350e-39
2.418471 0.405579 -0.233629 3.876898192e-39
1.965633 0.430730 -0.234891 7.283090422e-39
1.967821 0.449542 -0.238557 6.360060728e-39
1.971087 0.453127 -0.231213 9.402145170e-39
1.967560 0.470001 -0.240413 5.721533860e-39
1.971731 0.471674 -0.230718 7.745148972e-39
1.968889 0.485431 -0.242059 3.969800077e-39
1.972025 0.491909 -0.234051 4.337512004e-39
1.969000 0.511550 -0.243849 4.604739621e-39
1.972784 0.510651 -0.235557 4.604380889e-39
1.973539 0.530976 -0.235175 8.567355241e-39
1.974440 0.551011 -0.235086 1.051102628e-38
1.975920 0.570940 -0.235273 6.919002252e-39
1.976115 0.590763 -0.235248 4.707021798e-39
1.975365 0.610546 -0.234847 5.718645784e-39
1.975154 0.630684 -0.235496 6.548762382e-39
1.974755 0.650751 -0.234913 7.932787040e-39
1.973392 0.670373 -0.235608 6.828604488e-39
1.974980 0.690575 -0.235255 7.378535663e-39
1.968428 0.719447 -0.235803 4.797060829e-39
1.973603 0.710542 -0.234443 4.521190003e-39
1.962623 0.729855 -0.234858 4.427551036e-39
1.957937 0.745806 -0.237599 3.506312202e-39
3.549000 1.629235 -0.225269 2.240785966e-38
3.552333 1.634730 -0.228861 2.231602276e-38
3.555063 1.652115 -0.233427 2.277520165e-38
3.549833 1.667152 -0.231788 2.295851391e-38
3.552000 1.672064 -0.235441 2.295851391e-38
3.556923 1.690599 -0.233996 2.295851391e-38
3.558000 1.710608 -0.232729 2.305070673e-38
3.557800 1.731918 -0.232741 2.295887264e-38
3.557154 1.750983 -0.233988 2.305070813e-38
3.561167 1.771035 -0.233156 2.305070813e-38
3.565556 1.790478 -0.235780 2.305070813e-38
3.565143 1.810016 -0.232979 2.295851391e-38
3.568857 1.832779 -0.234022 2.083478162e-38
3.571333 1.827759 -0.241191 2.304855434e-38
3.567000 1.850670 -0.235719 7.186948735e-39
3.566111 1.869927 -0.235760 7.647915674e-39
3.406000 -1.522658 -0.207978 1.385444173e-39
3.415667 -1.525185 -0.218185 1.754226693e-39
3.416200 -1.510064 -0.212604 2.491791732e-39
3.473000 -1.501271 -0.215189 1.170991699e-38
3.502400 -1.509921 -0.215313 1.512151542e-38
3.518333 -1.510935 -0.212825 1.521443412e-38
3.541833 -1.511841 -0.214393 1.539882819e-38
3.563500 -1.510221 -0.216109 1.503112327e-38
3.580545 -1.505578 -0.214473 1.503112327e-38
3.595250 -1.502094 -0.214507 1.493892764e-38
3.417636 -1.493493 -0.211973 4.058397172e-39
3.437833 -1.491096 -0.214321 9.865642854e-39
3.604625 -1.498191 -0.214035 1.521515719e-38
3.621182 -1.492556 -0.213986 1.512260283e-38
3.635667 -1.484718 -0.215361 1.558321945e-38
3.644333 -1.471553 -0.214931 1.503004286e-38
3.648167 -1.455992 -0.214742 1.383149968e-38
3.651667 -1.446040 -0.214570 1.346271716e-38
3.654500 -1.429932 -0.214428 1.309393464e-38
3.654333 -1.409502 -0.214435 1.290954198e-38
3.654250 -1.389108 -0.214441 1.272550805e-38
3.655667 -1.369391 -0.214374 1.263367115e-38
3.653444 -1.350955 -0.214481 1.235672413e-38
3.648600 -1.322108 -0.215882 1.244927989e-38
3.650714 -1.333979 -0.213786 1.235744299e-38
3.646667 -1.307347 -0.214817 1.217269300e-38
3.643778 -1.288716 -0.214960 1.198794301e-38
3.647500 -1.270564 -0.215355 1.180355175e-38
3.650000 -1.268125 -0.211747 1.171135612e-38
3.643111 -1.247873 -0.214994 1.198794161e-38
3.641667 -1.229900 -0.215062 1.198722274e-38
3.640000 -1.211861 -0.215145 1.143441190e-38
3.636083 -1.190057 -0.215339 1.143441050e-38
3.635444 -1.169574 -0.215372 1.171099739e-38
3.629667 -1.146181 -0.211811 1.189610611e-38
3.632857 -1.151245 -0.217976 1.171207639e-38
3.632000 -1.129920 -0.215016 1.161880316e-38
3.628571 -1.107588 -0.216537 1.143441330e-38
3.631500 -1.116088 -0.212679 1.161880456e-38
3.626555 -1.091201 -0.215813 1.134257360e-38
3.622846 -1.069041 -0.215111 1.161952062e-38
3.622417 -1.048919 -0.214581 1.171135892e-38
3.626000 -1.037208 -0.211996 1.189539005e-38
3.633000 -1.035779 -0.218381 1.217233427e-38
1.896852 -0.904365 -0.218932 6.478791346e-40
1.903714 -0.891991 -0.215287 1.570188560e-39
1.911937 -0.887443 -0.208917 1.938969679e-39
1.905683 -0.871844 -0.214565 1.017377718e-39
1.917683 -0.866089 -0.214176 1.201051512e-39
1.917620 -0.849086 -0.214960 1.385801505e-39
1.922565 -0.831252 -0.214488 1.386517568e-39
1.923154 -0.809915 -0.214678 9.248233553e-40
1.922554 -0.788865 -0.214453 1.478354466e-39
1.920638 -0.769102 -0.214379 9.251848903e-40
1.920019 -0.749836 -0.214519 1.293604473e-39
1.933000 -0.745604 -0.211432 1.109576150e-39
1.923143 -0.738006 -0.222053 1.109213214e-39
1.931000 -0.738587 -0.218225 7.404306943e-40
1.918937 -0.385081 -0.218373 1.198758568e-38
1.918569 -0.368440 -0.214875 1.143548950e-38
1.926655 -0.350948 -0.215688 3.691055187e-39
1.932154 -0.342451 -0.208591 1.662391197e-39
1.929461 -0.334255 -0.221216 2.307400472e-39
1.934314 -0.327748 -0.212961 2.307399071e-39
1.936843 -0.308998 -0.214956 2.399954834e-39
1.940107 -0.289577 -0.214598 3.136080740e-39
1.943127 -0.269282 -0.214418 2.583625827e-39
1.946111 -0.248652 -0.214245 2.767659755e-39
1.950000 -0.254959 -0.205542 2.766939488e-39
1.947571 -0.229277 -0.217821 2.860574251e-39
1.950684 -0.228241 -0.207847 3.230077038e-39
1.948538 -0.214852 -0.219626 2.492150464e-39
1.951660 -0.208370 -0.213668 3.045685778e-39
1.949000 -0.194872 -0.224287 2.307044542e-39
1.953672 -0.188625 -0.214004 3.321193668e-39
1.955875 -0.169251 -0.214227 3.137162542e-39
1.955921 -0.149351 -0.214373 3.229719707e-39
1.957000 -0.129271 -0.215440 4.243867432e-39
1.958232 -0.109326 -0.215309 5.716839510e-39
1.958245 -0.089238 -0.215307 4.799932090e-39
1.958411 -0.069163 -0.215291 3.966564479e-39
1.958816 -0.049097 -0.215248 2.491072866e-39
1.957821 -0.028953 -0.215354 4.429702029e-39
1.955236 -0.008639 -0.214467 3.044605377e-39
1.949000 0.008728 -0.224287 3.136449281e-39
1.955814 0.009736 -0.216498 2.122654684e-39
2.455167 0.075078 -0.221598 1.846785259e-39
2.448000 0.098843 -0.222743 2.123014818e-39
2.456500 0.092101 -0.217491 2.583634235e-39
2.471000 0.082616 -0.214951 2.492516203e-39
2.443500 0.110624 -0.221058 2.400320573e-39
2.456385 0.110264 -0.211948 3.046054320e-39
2.439846 0.130810 -0.218783 2.860226729e-39
2.452546 0.129901 -0.210856 3.506676539e-39
2.428500 0.154433 -0.221860 2.769105895e-39
2.438857 0.150463 -0.216467 3.137891217e-39
2.450800 0.150378 -0.209369 3.968373555e-39
2.428400 0.170390 -0.221867 2.953497155e-39
2.435600 0.167669 -0.214895 3.507749934e-39
2.425000 0.191409 -0.220948 3.229725312e-39
2.431667 0.184829 -0.218061 3.230802911e-39
2.422545 0.210191 -0.220710 3.322644012e-39
2.425714 0.228926 -0.221062 3.322646815e-39
2.432000 0.232845 -0.218035 3.875460460e-39
2.425000 0.249847 -0.222130 3.507396807e-39
2.428500 0.271527 -0.221860 3.508831736e-39
2.428500 0.291038 -0.221860 3.692143996e-39
2.430333 0.291280 -0.221718 3.876895390e-39
2.422636 0.310525 -0.220705 4.060209051e-39
2.424250 0.329437 -0.221305 3.969093822e-39
2.436000 0.334769 -0.217718 2.402129650e-39
1.965571 0.358147 -0.219912 2.166993869e-38
1.970500 0.358066 -0.215357 2.157774446e-38
2.429000 0.351442 -0.221821 4.154206751e-39
1.962196 0.370795 -0.215935 1.032879442e-38
1.970667 0.367107 -0.206784 2.185361249e-38
2.429000 0.370962 -0.221821 4.338956743e-39
2.430250 0.371178 -0.221725 3.970174223e-39
1.966721 0.389325 -0.214720 4.151677407e-39
1.970400 0.398019 -0.210234 3.598858156e-39
2.429000 0.388708 -0.221821 4.430433507e-39
2.430667 0.391974 -0.221692 4.246042247e-39
1.968000 0.409246 -0.221381 9.958205624e-39
1.972308 0.410472 -0.211937 9.499023939e-39
2.424500 0.412674 -0.222169 4.615543632e-39
2.434667 0.405756 -0.221384 4.430433507e-39
1.968571 0.430482 -0.222305 6.452972422e-39
1.973872 0.430748 -0.212143 6.642418165e-39
1.974259 0.451216 -0.214600 9.035886389e-39
1.977643 0.470914 -0.214592 1.106095185e-38
1.978729 0.490796 -0.214822 6.360776792e-39
1.979925 0.510875 -0.214890 3.502354935e-39
1.980034 0.530070 -0.214340 4.423590966e-39
1.982588 0.550921 -0.215165 5.806879943e-39
1.981314 0.570219 -0.215141 6.915021163e-39
1.981804 0.589913 -0.215370 8.204680981e-39
1.983020 0.610654 -0.215383 7.377081115e-39
1.981625 0.630521 -0.215530 6.827885622e-39
1.980396 0.651254 -0.215864 9.773108110e-39
1.979241 0.671105 -0.214976 7.560401782e-39
1.977968 0.690746 -0.214411 5.626092823e-39
1.969000 0.719328 -0.220912 2.123736486e-39
1.973881 0.709802 -0.214511 3.966571485e-39
1.965571 0.728690 -0.221454 3.137528281e-39
1.973636 0.724926 -0.212432 3.600304296e-39
3.547429 1.632427 -0.213307 2.259117052e-38
3.550000 1.641003 -0.213976 2.277520165e-38
3.553300 1.652874 -0.214370 2.286703714e-38
3.549500 1.677280 -0.211191 2.305070813e-38
3.552286 1.668732 -0.214661 2.305070813e-38
3.550000 1.685983 -0.208354 2.305070813e-38
3.554000 1.690027 -0.215647 2.295887264e-38
3.561889 1.709355 -0.213367 2.305070813e-38
3.558800 1.730212 -0.213524 2.305070813e-38
3.556556 1.751514 -0.213638 2.305070813e-38
3.561111 1.771004 -0.213404 2.305070813e-38
3.567000 1.791305 -0.215932 2.295887264e-38
3.562000 1.807541 -0.214231 2.305034940e-38
3.564643 1.831115 -0.215245 1.908234299e-38
3.565928 1.851247 -0.216794 7.555006783e-39
3.566750 1.870309 -0.215940 7.739388234e-39
3.405000 -1.522654 -0.195715 1.108857284e-39
3.413000 -1.521065 -0.188793 1.292889811e-39
3.416636 -1.511534 -0.194427 2.399237370e-39
3.471750 -1.500621 -0.193342 8.943326421e-39
3.502333 -1.510995 -0.194286 1.539738205e-38
3.514000 -1.511486 -0.193601 1.521371246e-38
3.541636 -1.515046 -0.195546 1.512223990e-38
3.562444 -1.512036 -0.192639 1.512296016e-38
3.582222 -1.506940 -0.195276 1.512331749e-38
3.594667 -1.501803 -0.194569 1.503148060e-38
3.417100 -1.492621 -0.194454 3.504145794e-39
3.435857 -1.489676 -0.195097 8.113565753e-39
3.602333 -1.497052 -0.194133 1.503112186e-38
3.619400 -1.490579 -0.194315 1.512332030e-38
3.636500 -1.483386 -0.193922 1.503112747e-38
3.646000 -1.471114 -0.195376 1.466162188e-38
3.650000 -1.459771 -0.197229 1.355455265e-38
3.648625 -1.453308 -0.191500 1.355527012e-38
3.650286 -1.446631 -0.197213 1.346307309e-38
3.653125 -1.429287 -0.194153 1.318648480e-38
3.656167 -1.410346 -0.193980 1.300209354e-38
3.656125 -1.389962 -0.193981 1.263367115e-38
3.652250 -1.367861 -0.194199 1.235744439e-38
3.653200 -1.348517 -0.193565 1.226524876e-38
3.649000 -1.319959 -0.197284 1.208121624e-38
3.652909 -1.329580 -0.193896 1.217341187e-38
3.646250 -1.307651 -0.195982 1.198830174e-38
3.650000 -1.314585 -0.185614 1.217233287e-38
3.644250 -1.288916 -0.194645 1.180355315e-38
3.646188 -1.269438 -0.194540 1.180355175e-38
3.639667 -1.246457 -0.194904 1.189574598e-38
3.639833 -1.229157 -0.194897 1.189574738e-38
3.639500 -1.211660 -0.194914 1.161952202e-38
3.635750 -1.189926 -0.195123 1.161916329e-38
3.629000 -1.161310 -0.186847 1.198794161e-38
3.633273 -1.169259 -0.196050 1.152696626e-38
3.628417 -1.149551 -0.195534 1.143477063e-38
3.628400 -1.131091 -0.192075 1.152696766e-38
3.631833 -1.127758 -0.201116 1.125002204e-38
3.626091 -1.107798 -0.194878 1.152660753e-38
3.632000 -1.116273 -0.203993 1.161880456e-38
3.625083 -1.090666 -0.195719 1.180426921e-38
3.622333 -1.070099 -0.195297 1.152876132e-38
3.620400 -1.048121 -0.194256 1.180462935e-38
3.623625 -1.035428 -0.195803 1.217233427e-38
1.897000 -0.911069 -0.201334 9.248219540e-40
1.905257 -0.890592 -0.197383 6.482392683e-40
1.911250 -0.892333 -0.200897 8.322703943e-40
1.905550 -0.874662 -0.193969 1.017018985e-39
1.919057 -0.867397 -0.194865 1.108854481e-39
1.920629 -0.848358 -0.194289 9.248247566e-40
1.926418 -0.829557 -0.193844 1.386520371e-39
1.926089 -0.809278 -0.193730 9.248247566e-40
1.924774 -0.789021 -0.194632 1.293967410e-39
1.927000 -0.771985 -0.194399 1.017021788e-39
1.932625 -0.772036 -0.190749 1.201052914e-39
1.925526 -0.755286 -0.199240 8.326277254e-40
1.931000 -0.751728 -0.199828 9.248219540e-40
1.925688 -0.366657 -0.200624 1.198794161e-38
1.932857 -0.367048 -0.193964 1.198794161e-38
1.927583 -0.353160 -0.198377 1.189610751e-38
1.933314 -0.346046 -0.192628 1.014475068e-38
1.935949 -0.328220 -0.194494 3.414468298e-39
1.942516 -0.309055 -0.194469 1.846422323e-39
1.947038 -0.289464 -0.195807 2.308119338e-39
1.950200 -0.285631 -0.186874 1.662391197e-39
1.947880 -0.272128 -0.198018 2.861654652e-39
1.952414 -0.265708 -0.191649 2.491791732e-39
1.948714 -0.246142 -0.201508 2.951330748e-39
1.952568 -0.249602 -0.193844 2.582908362e-39
1.954304 -0.229124 -0.194360 2.768738755e-39
1.956326 -0.209442 -0.194113 3.321196471e-39
1.958125 -0.189661 -0.193895 3.782890684e-39
1.961519 -0.169448 -0.193226 4.242792636e-39
1.961111 -0.149183 -0.193980 4.334986864e-39
1.963339 -0.129465 -0.194309 3.968002211e-39
1.964000 -0.109457 -0.194812 3.597777755e-39
1.963649 -0.089531 -0.194403 2.953492951e-39
1.964238 -0.069455 -0.194647 2.492513401e-39
1.963875 -0.049411 -0.194542 3.042451582e-39
1.961311 -0.029452 -0.195314 3.137522676e-39
1.961367 -0.010865 -0.196989 1.938617953e-39
1.970000 -0.014681 -0.187056 2.215204842e-39
1.963000 0.002378 -0.202040 1.846425125e-39
1.972500 0.008219 -0.202973 2.030459054e-39
1.977286 0.376988 -0.200869 2.185397122e-38
1.969000 0.391470 -0.200674 5.073999445e-39
1.973711 0.390814 -0.196132 1.318721768e-38
1.974260 0.410127 -0.194481 4.981084949e-39
1.977776 0.430233 -0.194222 6.271823767e-39
1.980245 0.449925 -0.193927 5.258749437e-39
1.982615 0.470278 -0.193960 4.152038942e-39
1.983472 0.490876 -0.193234 3.872932518e-39
1.983692 0.510689 -0.194144 3.227204376e-39
1.983423 0.530466 -0.193810 4.976401809e-39
1.983508 0.550773 -0.194745 8.387998846e-39
1.984963 0.571018 -0.194372 9.586897964e-39
1.986241 0.591095 -0.194218 9.402508106e-39
1.985804 0.609784 -0.194632 8.205404051e-39
1.986547 0.630549 -0.194542 5.440977092e-39
1.983758 0.650928 -0.194613 3.781465563e-39
1.982500 0.670286 -0.194970 3.414483712e-39
1.981250 0.689587 -0.196116 3.230805713e-39
1.980812 0.707488 -0.198961 4.522629136e-39
1.987000 0.724981 -0.202684 9.596985912e-39
3.547125 1.631065 -0.194463 2.286667701e-38
3.550000 1.648875 -0.190362 2.305070813e-38
3.551429 1.655417 -0.197028 2.286703574e-38
3.548875 1.676943 -0.194362 2.305070813e-38
3.551375 1.667040 -0.194219 2.295887264e-38
3.549750 1.685848 -0.194311 2.305070813e-38
3.553125 1.696119 -0.194117 2.305070813e-38
3.556917 1.712270 -0.193900 2.305070813e-38
3.557462 1.730343 -0.193218 2.305070813e-38
3.560357 1.750829 -0.194102 2.305070813e-38
3.563077 1.771248 -0.193760 2.305070813e-38
3.563071 1.790667 -0.192737 2.305070813e-38
3.564786 1.811022 -0.194248 2.305034800e-38
3.567692 1.832156 -0.193924 1.908234579e-38
3.564133 1.849537 -0.192915 8.015977926e-39
3.566167 1.869961 -0.193366 7.924135424e-39
3.409000 -1.526959 -0.183681 9.244660242e-40
3.414000 -1.521603 -0.183359 1.201054315e-39
3.409000 -1.516235 -0.167596 1.292529678e-39
3.416429 -1.511006 -0.175144 2.397799637e-39
3.471000 -1.500231 -0.179696 8.758936563e-39
3.501000 -1.509195 -0.173341 1.216981473e-38
3.518200 -1.511423 -0.173314 1.530446755e-38
3.540600 -1.516249 -0.176341 1.539774498e-38
3.561333 -1.513350 -0.173891 1.521407679e-38
3.580917 -1.506282 -0.175476 1.503076173e-38
3.599857 -1.501946 -0.173045 1.530698849e-38
3.419214 -1.493272 -0.175723 4.241349298e-39
3.437167 -1.489846 -0.171948 6.545879911e-39
3.468500 -1.498930 -0.171649 8.942608957e-39
3.607200 -1.497754 -0.175520 1.521479286e-38
3.619400 -1.491731 -0.174760 1.512259863e-38
3.633000 -1.483417 -0.175061 1.503112327e-38
3.643167 -1.470988 -0.174427 1.466162188e-38
3.650000 -1.459771 -0.171095 1.355562885e-38
3.649000 -1.456390 -0.179867 1.373966138e-38
3.652250 -1.448495 -0.173131 1.337087606e-38
3.652583 -1.429037 -0.173838 1.309429057e-38
3.655500 -1.408873 -0.174238 1.291025804e-38
3.655818 -1.389029 -0.173109 1.254183565e-38
3.653667 -1.368496 -0.173769 1.254111679e-38
3.652917 -1.347811 -0.173816 1.244892256e-38
3.648000 -1.319526 -0.168320 1.217233287e-38
3.653250 -1.328341 -0.174524 1.226452850e-38
3.646857 -1.306599 -0.172539 1.217233287e-38
3.650500 -1.311897 -0.179776 1.217233287e-38
3.643667 -1.288670 -0.174397 1.189574738e-38
3.644000 -1.268525 -0.174375 1.189574738e-38
3.640556 -1.246821 -0.174588 1.189574738e-38
3.638667 -1.228686 -0.174706 1.171171625e-38
3.635778 -1.210170 -0.174888 1.152840259e-38
3.635167 -1.189696 -0.174925 1.171135472e-38
3.633445 -1.168800 -0.175032 1.161916049e-38
3.630000 -1.150155 -0.181018 1.180355035e-38
3.632625 -1.148269 -0.172196 1.152660473e-38
3.629000 -1.126700 -0.177781 1.171135752e-38
3.631333 -1.131420 -0.171315 1.152696486e-38
3.627111 -1.108698 -0.175427 1.161916329e-38
3.626111 -1.091040 -0.175491 1.162023949e-38
3.622250 -1.069491 -0.175731 1.171207499e-38
3.623556 -1.049801 -0.175648 1.161916049e-38
3.625667 -1.036132 -0.175517 1.180355175e-38
3.638250 -1.028907 -0.171839 1.189574738e-38
1.909000 -0.870136 -0.184350 5.556835047e-40
1.918444 -0.865713 -0.181650 4.634878749e-40
1.914931 -0.849397 -0.179983 6.478791346e-40
1.910000 -0.838421 -0.176450 9.244660242e-40
1.918116 -0.830120 -0.177816 8.322703943e-40
1.920977 -0.809249 -0.177360 8.322703943e-40
1.922429 -0.789958 -0.179301 8.322689930e-40
1.928000 -0.777593 -0.180518 1.017376316e-39
1.937333 -0.776372 -0.183230 8.326277254e-40
1.941308 -0.346950 -0.180873 1.235672833e-38
1.941897 -0.328502 -0.176989 1.180463215e-38
1.950500 -0.324330 -0.165522 1.254111679e-38
1.944455 -0.309360 -0.174478 7.747304169e-39
1.948500 -0.293644 -0.173122 4.151676006e-39
1.950484 -0.284836 -0.176612 1.846423724e-39
1.953359 -0.268990 -0.174463 1.754226693e-39
1.955446 -0.249389 -0.174176 1.662031063e-39
1.956422 -0.229521 -0.174048 1.570195567e-39
1.959310 -0.209119 -0.174304 1.569835433e-39
1.960260 -0.188874 -0.175030 1.477997134e-39
1.962472 -0.169395 -0.174873 1.569835433e-39
1.962885 -0.149388 -0.174203 1.662031063e-39
1.965107 -0.128872 -0.174216 1.846422323e-39
1.965694 -0.108751 -0.174133 1.754586827e-39
1.966686 -0.089567 -0.173734 1.939336819e-39
1.965489 -0.070388 -0.175774 1.846782457e-39
1.973857 -0.065489 -0.166848 2.399238771e-39
1.965500 -0.050852 -0.179052 1.754229496e-39
1.975312 -0.048413 -0.171313 2.215566377e-39
1.966778 -0.033418 -0.181472 1.938619354e-39
1.975538 -0.029069 -0.178227 2.307760606e-39
1.978500 -0.017715 -0.181915 2.676184393e-39
2.805000 0.083082 -0.172407 1.807357485e-38
2.812000 0.085769 -0.166702 2.000860688e-38
1.982556 0.413643 -0.181850 1.549210982e-38
1.982913 0.430647 -0.179869 7.101595646e-39
1.993667 0.437204 -0.173115 1.788811720e-38
1.982750 0.451302 -0.179327 4.059132854e-39
1.994500 0.451842 -0.171627 7.471090025e-39
1.984464 0.470193 -0.178423 3.323004146e-39
1.997200 0.467852 -0.168242 1.457159266e-38
1.984500 0.490546 -0.179363 3.046052919e-39
1.992000 0.491574 -0.172876 4.798135625e-39
2.010000 0.497058 -0.165399 1.032879582e-38
1.985414 0.511393 -0.178066 3.413757840e-39
1.994111 0.515088 -0.169393 7.192705269e-39
1.983579 0.530750 -0.177390 4.334637941e-39
1.992857 0.530235 -0.167737 8.754635978e-39
1.983483 0.550626 -0.178316 3.782900493e-39
1.992923 0.551351 -0.168992 1.235817727e-38
1.986385 0.571569 -0.178491 3.782183028e-39
1.991667 0.564543 -0.171549 1.014476329e-38
1.986929 0.590799 -0.178106 4.335716941e-39
1.990000 0.589506 -0.173601 7.654043552e-39
1.986809 0.608875 -0.179226 3.323723012e-39
1.992167 0.615440 -0.174227 6.367979466e-39
1.986733 0.631261 -0.180953 3.138249950e-39
1.993000 0.629409 -0.174964 6.089237379e-39
1.986000 0.649287 -0.181714 3.230811319e-39
1.991400 0.651125 -0.177251 5.721539465e-39
1.986800 0.667528 -0.182220 3.876546467e-39
1.994200 0.662983 -0.176885 8.765788912e-39
3.541333 1.611211 -0.175177 2.277484291e-38
3.547250 1.631130 -0.174796 2.305070813e-38
3.550000 1.646626 -0.177430 2.305070813e-38
3.551714 1.654765 -0.173705 2.305070813e-38
3.550000 1.680360 -0.180241 2.305070813e-38
3.552667 1.670544 -0.174446 2.305070813e-38
3.550000 1.685983 -0.180241 2.305070813e-38
3.553000 1.691550 -0.173300 2.314254223e-38
3.557222 1.712437 -0.174153 2.305034800e-38
3.554833 1.730834 -0.174307 2.314254223e-38
3.557000 1.751765 -0.174169 2.305070813e-38
3.558444 1.769488 -0.174077 2.305070813e-38
3.562200 1.789685 -0.173835 2.305070813e-38
3.564182 1.810232 -0.173707 2.305034800e-38
3.567000 1.832935 -0.173013 1.779160557e-38
3.563300 1.850172 -0.174330 8.107812021e-39
3.562400 1.865447 -0.171564 8.199999243e-39
3.412375 -1.509994 -0.153940 1.569834032e-39
3.470500 -1.499971 -0.149613 9.127000216e-39
3.496714 -1.505711 -0.154373 1.346055355e-38
3.518667 -1.508332 -0.154377 1.530518642e-38
3.541900 -1.510188 -0.154392 1.512152103e-38
3.561778 -1.507306 -0.156301 1.493785004e-38
3.577667 -1.502123 -0.152669 1.493785004e-38
3.593500 -1.501220 -0.157568 1.512223849e-38
3.415750 -1.492984 -0.153690 3.043523575e-39
3.439333 -1.491881 -0.154640 5.900509101e-39
3.469000 -1.499190 -0.160670 8.850773460e-39
3.599500 -1.495644 -0.154298 1.512223990e-38
3.619000 -1.490435 -0.155025 1.521443553e-38
3.636900 -1.483582 -0.153415 1.530663396e-38
3.644857 -1.470563 -0.154853 1.466126315e-38
3.650000 -1.459771 -0.162384 1.364710842e-38
3.648625 -1.452583 -0.149414 1.346235702e-38
3.651714 -1.448138 -0.157292 1.337087746e-38
3.649000 -1.436071 -0.150839 1.318648620e-38
3.652467 -1.428400 -0.153697 1.291025944e-38
3.654417 -1.409540 -0.153370 1.272622691e-38
3.652929 -1.389756 -0.154302 1.244928129e-38
3.651643 -1.369248 -0.152732 1.244891976e-38
3.652462 -1.349623 -0.154176 1.235672553e-38
3.651091 -1.331957 -0.152806 1.217197554e-38
3.644813 -1.309450 -0.154030 1.198866188e-38
3.642000 -1.287963 -0.154222 1.189610471e-38
3.642714 -1.269228 -0.155003 1.180283288e-38
3.641286 -1.248776 -0.153445 1.161808289e-38
3.639500 -1.229024 -0.154396 1.171135612e-38
3.636250 -1.210360 -0.154619 1.152732359e-38
3.634438 -1.189411 -0.154747 1.152768232e-38
3.632833 -1.168563 -0.154858 1.134329106e-38
3.630000 -1.144384 -0.149280 1.125073670e-38
3.632583 -1.150178 -0.156799 1.152696486e-38
3.628200 -1.127553 -0.151716 1.134365120e-38
3.631750 -1.130615 -0.160705 1.161952062e-38
3.626333 -1.108413 -0.155305 1.143584823e-38
3.622667 -1.089789 -0.155559 1.134365260e-38
3.624000 -1.070113 -0.155464 1.152840259e-38
3.624833 -1.050249 -0.155408 1.162023949e-38
3.626375 -1.036378 -0.155302 1.180391188e-38
3.635400 -1.026197 -0.153524 1.189610611e-38
1.955200 -0.307609 -0.161379 1.254111819e-38
1.954952 -0.289380 -0.159543 1.254183986e-38
1.953875 -0.269106 -0.159702 9.038401720e-39
1.956810 -0.249665 -0.159274 6.456563950e-39
1.958667 -0.229929 -0.159003 6.549118312e-39
1.962571 -0.208787 -0.159488 5.627522147e-39
1.970000 -0.200999 -0.154653 1.466305541e-38
1.963118 -0.190064 -0.161671 2.492510598e-39
1.974615 -0.188001 -0.155013 1.171243512e-38
1.964625 -0.169172 -0.162170 1.754228094e-39
1.966500 -0.150361 -0.162127 1.569835433e-39
1.970000 -0.142944 -0.160054 5.556849060e-40
1.966500 -0.129033 -0.163251 2.399240172e-39
1.970000 -0.129442 -0.160054 1.477283874e-39
1.968500 -0.115780 -0.162967 2.308120740e-39
1.973615 -0.107678 -0.160573 4.337144864e-39
1.972750 -0.089181 -0.162364 1.294328945e-39
1.976667 -0.069624 -0.162714 3.414110967e-39
1.981500 -0.057296 -0.163843 2.215571982e-39
2.809500 0.081466 -0.147785 1.530663536e-38
2.813375 0.084199 -0.155400 1.844128537e-38
2.033000 0.540685 -0.156628 1.370009291e-38
2.007750 0.555929 -0.162936 2.277520165e-38
2.026667 0.558236 -0.157515 2.268300742e-38
2.035333 0.547091 -0.154420 1.610149669e-38
2.027000 0.563964 -0.157469 2.286703714e-38
2.038546 0.566154 -0.149424 2.295851391e-38
3.541000 1.594220 -0.147168 2.277520165e-38
3.543917 1.609745 -0.155365 2.295851250e-38
3.546750 1.630869 -0.155168 2.305070673e-38
3.547455 1.652429 -0.152825 2.314254363e-38
3.551000 1.649966 -0.163306 2.314254363e-38
3.547833 1.668890 -0.150413 2.314254223e-38
3.552333 1.672242 -0.159465 2.314254363e-38
3.549333 1.691244 -0.146555 2.314254223e-38
3.553667 1.690783 -0.157496 2.314254223e-38
3.557917 1.712821 -0.154382 2.314254223e-38
3.557437 1.732277 -0.154413 2.314254223e-38
3.555417 1.750874 -0.154556 2.314254223e-38
3.557583 1.769001 -0.154400 2.314254223e-38
3.563167 1.789110 -0.154006 2.305070813e-38
3.564357 1.808352 -0.153118 2.305034800e-38
3.565235 1.831504 -0.154032 1.751358095e-38
3.571000 1.827564 -0.161946 2.341733265e-38
3.562083 1.850582 -0.154085 8.198571320e-39
3.562500 1.867765 -0.154056 8.107087550e-39
3.415500 -1.519725 -0.132212 9.244646229e-40
3.412636 -1.507941 -0.134644 1.293605875e-39
3.470500 -1.499971 -0.138663 8.944045287e-39
3.501167 -1.507622 -0.136264 1.410736069e-38
3.520000 -1.510407 -0.134796 1.512187416e-38
3.541625 -1.513130 -0.133107 1.512223569e-38
3.558167 -1.508924 -0.134631 1.512223849e-38
3.578727 -1.503630 -0.134594 1.484565441e-38
3.591000 -1.499970 -0.129246 1.475345598e-38
3.416091 -1.492670 -0.133386 2.399235968e-39
3.436714 -1.490126 -0.137054 6.823187068e-39
3.468500 -1.498930 -0.127875 1.180283148e-38
3.589000 -1.498970 -0.143639 1.512224130e-38
3.598250 -1.495022 -0.134388 1.493784864e-38
3.619667 -1.491284 -0.135632 1.503004567e-38
3.639667 -1.483771 -0.134125 1.503004707e-38
3.647556 -1.470209 -0.133530 1.438467486e-38
3.647333 -1.449792 -0.133548 1.337052013e-38
3.649000 -1.436071 -0.133422 1.309428917e-38
3.651444 -1.425599 -0.133239 1.281806241e-38
3.652889 -1.408836 -0.133129 1.272622691e-38
3.648250 -1.384932 -0.133479 1.254111679e-38
3.652000 -1.394480 -0.133198 1.272550805e-38
3.648333 -1.374811 -0.133473 1.244892116e-38
3.650667 -1.364245 -0.133296 1.217233427e-38
3.651667 -1.350167 -0.133221 1.217233287e-38
3.648800 -1.328000 -0.132277 1.189574738e-38
3.650750 -1.336692 -0.134742 1.208013724e-38
3.646909 -1.311141 -0.134107 1.143548810e-38
3.650000 -1.302970 -0.127540 1.161915909e-38
3.647000 -1.289359 -0.134297 1.152696346e-38
3.650000 -1.297162 -0.127540 1.171135472e-38
3.643778 -1.271330 -0.133815 1.152696346e-38
3.641167 -1.249968 -0.134013 1.143440910e-38
3.639333 -1.228956 -0.134151 1.134257360e-38
3.635333 -1.209993 -0.134453 1.125109543e-38
3.634500 -1.189433 -0.134513 1.106742444e-38
3.634111 -1.169057 -0.134543 1.097558755e-38
3.630000 -1.144384 -0.134854 1.134293233e-38
3.632667 -1.154060 -0.134653 1.125109543e-38
3.627083 -1.128865 -0.135073 1.143476783e-38
3.627000 -1.108657 -0.135079 1.134257220e-38
3.622333 -1.089670 -0.135431 1.143548669e-38
3.621500 -1.069222 -0.135496 1.134329106e-38
3.621444 -1.049063 -0.135500 1.171171485e-38
3.624750 -1.030053 -0.135252 1.161952062e-38
3.637000 -1.019807 -0.140110 1.152804386e-38
3.630000 -1.017434 -0.129084 1.152696486e-38
3.632000 -1.018112 -0.134704 1.189574738e-38
3.524000 0.052543 -0.128904 2.675473935e-39
3.518250 0.063643 -0.129366 4.058768516e-39
2.810000 0.081475 -0.141355 1.484673621e-38
2.812000 0.083945 -0.133857 1.761296664e-38
2.857000 0.260295 -0.128001 1.208013724e-38
2.857000 0.271147 -0.128001 1.373965858e-38
2.856800 0.290656 -0.128022 1.392476870e-38
2.854500 0.309925 -0.128259 1.355634632e-38
2.857200 0.329777 -0.127981 1.171243372e-38
2.857333 0.347153 -0.127967 9.038754847e-39
3.286000 0.480259 -0.127407 2.037955861e-38
3.284400 0.492832 -0.130110 2.047139410e-38
2.808500 0.515058 -0.135127 2.148554603e-38
2.814333 0.509869 -0.132399 2.148590476e-38
3.285571 0.509524 -0.127078 2.074798239e-38
3.287000 0.529211 -0.128176 2.074762226e-38
2.048833 0.549685 -0.134961 1.508050783e-38
2.053200 0.547896 -0.133246 1.461880661e-38
3.283556 0.550538 -0.127905 2.093201212e-38
2.045000 0.568287 -0.130344 2.295887264e-38
2.053500 0.573115 -0.131635 2.305070813e-38
3.264333 0.566817 -0.130152 2.139299027e-38
3.274500 0.562797 -0.125857 2.111640338e-38
3.532750 1.573218 -0.128206 2.295851391e-38
3.538667 1.590227 -0.133336 2.286703574e-38
3.548400 1.609816 -0.133137 2.305070673e-38
3.551750 1.616609 -0.137939 2.305070673e-38
3.548600 1.633522 -0.134808 2.314254223e-38
3.551000 1.624657 -0.137996 2.314254223e-38
3.544308 1.650522 -0.134406 2.314254223e-38
3.545800 1.671358 -0.135022 2.314254223e-38
3.547778 1.690399 -0.135431 2.314254223e-38
3.549500 1.702577 -0.138110 2.332621322e-38
3.555000 1.712829 -0.134072 2.332621322e-38
3.557667 1.732408 -0.134670 2.332621322e-38
3.558000 1.752325 -0.134642 2.323437773e-38
3.558600 1.770705 -0.134036 2.314254223e-38
3.563500 1.790006 -0.134926 2.305070673e-38
3.561400 1.810665 -0.134381 2.314218490e-38
3.558000 1.831247 -0.134643 1.483955035e-38
3.560778 1.849808 -0.134429 8.107456091e-39
3.562556 1.867798 -0.134291 8.016331053e-39
3.407700 -1.508033 -0.113558 1.293964607e-39
3.411750 -1.512346 -0.123128 1.385800103e-39
3.500000 -1.509786 -0.114241 1.493784583e-38
3.523000 -1.514739 -0.113657 1.484601034e-38
3.543444 -1.514217 -0.115196 1.493820597e-38
3.559100 -1.507702 -0.115951 1.503004286e-38
3.576778 -1.503569 -0.113028 1.503004146e-38
3.592667 -1.500803 -0.114861 1.503004006e-38
3.408333 -1.496222 -0.115825 1.938615150e-39
3.416455 -1.489929 -0.116257 2.675464125e-39
3.436000 -1.489238 -0.112492 9.773811561e-39
3.467000 -1.498150 -0.114324 1.456834585e-38
3.602333 -1.497051 -0.114062 1.484600753e-38
3.622667 -1.494685 -0.116218 1.493784443e-38
3.636750 -1.486688 -0.114110 1.512259723e-38
3.643200 -1.470428 -0.113002 1.438575105e-38
3.647083 -1.451606 -0.115195 1.346307449e-38
3.650500 -1.445488 -0.110076 1.318648620e-38
3.648500 -1.435836 -0.118948 1.300209494e-38
3.652100 -1.427066 -0.115172 1.300209354e-38
3.652555 -1.408683 -0.115717 1.272550665e-38
3.648750 -1.386610 -0.118928 1.254111679e-38
3.650400 -1.392587 -0.113569 1.263331382e-38
3.648000 -1.368857 -0.116087 1.226524876e-38
3.650000 -1.369756 -0.115925 1.244892116e-38
3.647889 -1.348494 -0.114162 1.217233427e-38
3.650000 -1.355237 -0.121732 1.226452850e-38
3.647000 -1.330697 -0.116167 1.189574598e-38
3.646125 -1.310012 -0.113339 1.161916049e-38
3.648000 -1.289927 -0.113186 1.125073670e-38
3.650000 -1.297162 -0.121732 1.106598531e-38
3.643000 -1.271006 -0.113595 1.125037657e-38
3.639938 -1.249462 -0.113845 1.125037657e-38
3.636917 -1.227976 -0.114093 1.134257220e-38
3.635667 -1.210126 -0.114193 1.134329247e-38
3.634250 -1.189335 -0.114313 1.125109824e-38
3.633000 -1.168628 -0.114414 1.115889981e-38
3.629000 -1.149774 -0.114740 1.125037657e-38
3.628000 -1.129208 -0.114824 1.106598671e-38
3.625667 -1.108166 -0.115015 1.134221487e-38
3.622083 -1.089577 -0.115307 1.143548810e-38
3.619786 -1.069847 -0.116317 1.143512936e-38
3.617357 -1.049273 -0.114874 1.161952062e-38
3.618428 -1.029115 -0.116431 1.180355315e-38
3.623200 -1.013396 -0.112340 1.171135612e-38
3.632000 -1.006564 -0.114494 1.143548810e-38
3.523000 0.038607 -0.112270 2.030098920e-39
3.528000 0.048375 -0.116030 2.767310832e-39
3.532250 0.052577 -0.111478 4.795614689e-39
3.523333 0.063684 -0.115025 1.143370284e-38
2.809600 0.082319 -0.112474 1.475489651e-38
2.811600 0.084910 -0.119061 1.890370266e-38
2.847500 0.194555 -0.109528 1.217448947e-38
2.847692 0.212859 -0.111003 1.457121711e-38
3.532000 0.217457 -0.108705 1.650733935e-38
2.848769 0.231240 -0.112214 1.466341274e-38
2.851500 0.235960 -0.119907 1.438610698e-38
3.532000 0.225841 -0.108705 1.650733935e-38
2.849667 0.244461 -0.111449 1.493999963e-38
2.852400 0.254377 -0.114903 1.466233514e-38
2.850000 0.274785 -0.107084 1.512403636e-38
2.852778 0.270249 -0.116404 1.447830682e-38
2.850000 0.296424 -0.107084 1.493964230e-38
2.852826 0.289669 -0.116190 1.457014091e-38
2.850000 0.305080 -0.107084 1.493964090e-38
2.852043 0.312373 -0.116272 1.438610698e-38
3.525000 0.309052 -0.109310 1.244964703e-38
2.849143 0.331866 -0.109035 1.457049824e-38
