# This PCD file was generated using the MATLAB® pcwrite function
# from Computer Vision System Toolbox®.
# .PCD v.7 - Point Cloud Data file format
VERSION .7
FIELDS x y z rgb
SIZE 4 4 4 4
TYPE F F F F
COUNT 1 1 1 1
WIDTH 1094
HEIGHT 1
VIEWPOINT 0 0 0 1 0 0 0
POINTS 1094
DATA ascii
3.509586 1.145863 0.061725 2.305070813e-38
3.508680 1.175558 0.061212 2.305070673e-38
3.511269 1.204933 0.061153 2.305070673e-38
3.514375 1.233749 0.062492 2.314254223e-38
3.520033 1.266144 0.062844 2.323437773e-38
3.519428 1.297111 0.060964 2.323437773e-38
3.520933 1.324983 0.060186 2.332585449e-38
3.523567 1.353980 0.060560 2.332585449e-38
3.526613 1.383920 0.059830 2.332585449e-38
3.527333 1.415480 0.061352 2.332585449e-38
3.527033 1.444767 0.061059 2.332585449e-38
3.528200 1.475453 0.054526 2.341768999e-38
3.531375 1.475427 0.066566 2.341768999e-38
3.529750 1.505140 0.063771 2.341768999e-38
3.531563 1.508698 0.057161 2.341768999e-38
3.528833 1.533697 0.065653 2.332585449e-38
3.531417 1.538081 0.055162 2.332585449e-38
3.529500 1.554816 0.069785 2.341768999e-38
3.533652 1.566019 0.058233 2.332585449e-38
3.535840 1.594372 0.059517 2.332585449e-38
3.538760 1.623882 0.059928 2.332621322e-38
3.540733 1.655740 0.060210 2.332585449e-38
3.537840 1.685003 0.059804 2.332585449e-38
3.543040 1.715876 0.060535 2.332585449e-38
3.545200 1.745135 0.060839 2.332585449e-38
3.546933 1.776995 0.061084 2.332585449e-38
3.546400 1.807586 0.061012 2.323401899e-38
3.549619 1.835427 0.061478 1.115064616e-38
3.554419 1.865467 0.061063 7.555359911e-39
3.438000 -1.707802 0.105196 9.036236713e-39
3.446632 -1.701376 0.092300 9.129870076e-39
3.435933 -1.669231 0.094035 9.221711177e-39
3.442545 -1.680194 0.087197 9.129871477e-39
3.431379 -1.644881 0.092190 9.313546673e-39
3.425552 -1.615491 0.089417 9.222071311e-39
3.421828 -1.585519 0.090501 9.406462570e-39
3.418192 -1.554062 0.091637 9.497940735e-39
3.408000 -1.510339 0.086928 9.682690727e-39
3.414348 -1.525418 0.090847 9.590136365e-39
3.407500 -1.500023 0.084839 9.498299468e-39
3.415522 -1.491924 0.091734 9.682690727e-39
3.448200 -1.491082 0.090554 1.318541000e-38
3.481000 -1.499938 0.090203 1.549030355e-38
3.514867 -1.506362 0.089887 1.549102522e-38
3.545500 -1.505641 0.090009 1.512224130e-38
3.576917 -1.499526 0.091813 1.447758795e-38
3.606231 -1.487078 0.090653 1.447686909e-38
3.623000 -1.481420 0.083401 1.438467346e-38
3.633355 -1.465593 0.090310 1.392333798e-38
3.643655 -1.435951 0.092608 1.272515212e-38
3.646423 -1.405853 0.091946 1.244891976e-38
3.650333 -1.396042 0.075768 1.244891976e-38
3.646000 -1.376874 0.091262 1.208049597e-38
3.642160 -1.345966 0.091987 1.171207499e-38
3.639480 -1.315834 0.091589 1.161915909e-38
3.634600 -1.284833 0.090873 1.143476923e-38
3.629920 -1.253991 0.090181 1.134257220e-38
3.625440 -1.223322 0.089520 1.115889981e-38
3.627280 -1.195242 0.089794 1.115890261e-38
3.619125 -1.161101 0.097933 1.125037797e-38
3.622941 -1.165751 0.084748 1.134221627e-38
3.619100 -1.132771 0.094335 1.115818234e-38
3.622000 -1.136744 0.085176 1.125037937e-38
3.615896 -1.104170 0.090490 1.134257220e-38
3.612367 -1.074575 0.090460 1.152696346e-38
3.611500 -1.045584 0.090331 1.143512656e-38
3.608767 -1.015970 0.089923 1.152732359e-38
3.606724 -0.985848 0.090115 1.161916189e-38
3.601893 -0.954606 0.091148 1.152732780e-38
3.599080 -0.923543 0.091804 1.171171906e-38
3.596741 -0.893253 0.091208 1.171135472e-38
3.590000 -0.850073 0.098534 1.207978131e-38
3.595217 -0.863988 0.090021 1.198794161e-38
3.586900 -0.829831 0.091231 1.217197974e-38
3.592000 -0.842671 0.083448 1.207978411e-38
3.588100 -0.804833 0.091411 1.226453130e-38
3.591600 -0.801520 0.083389 1.235636820e-38
3.583600 -0.774327 0.089034 1.226488863e-38
3.580210 -0.746829 0.091218 1.235672553e-38
3.577111 -0.715882 0.096573 1.244891976e-38
3.575889 -0.684389 0.099224 1.254147552e-38
3.567461 -0.653044 0.098370 1.281734775e-38
3.560000 -0.635508 0.091150 1.300173901e-38
3.563286 -0.626149 0.101329 1.300174181e-38
3.562400 -0.593697 0.102804 1.318577013e-38
3.556167 -0.558606 0.099027 1.318613027e-38
3.561000 -0.576479 0.102587 1.309393464e-38
3.553937 -0.534587 0.096219 1.327832730e-38
3.555882 -0.504198 0.095833 1.364710842e-38
3.555533 -0.473989 0.096109 1.364818602e-38
3.555333 -0.445790 0.096078 1.392440997e-38
3.550833 -0.414142 0.095390 1.383258008e-38
3.551600 -0.383317 0.095510 1.410845231e-38
3.544733 -0.354293 0.094460 1.420100667e-38
3.546235 -0.324433 0.095019 1.466126595e-38
3.544667 -0.292551 0.092890 1.466270508e-38
3.542200 -0.264238 0.091267 1.493929197e-38
3.541000 -0.233765 0.094274 1.521516140e-38
3.540857 -0.202441 0.092265 1.539955126e-38
3.539633 -0.174327 0.090875 1.549210982e-38
3.540800 -0.143984 0.091452 1.576833658e-38
3.537968 -0.113146 0.090168 1.604492347e-38
3.540000 -0.084690 0.090924 1.622895600e-38
3.537806 -0.053801 0.090597 1.641370739e-38
3.535000 -0.022940 0.090163 1.650626175e-38
3.536567 0.005014 0.090404 1.669065301e-38
3.536278 0.035802 0.090363 1.696723990e-38
3.526818 0.064473 0.092726 1.724346666e-38
3.532167 0.055371 0.089735 1.715163116e-38
2.775400 0.090911 0.089279 1.613675056e-38
2.787000 0.102316 0.087403 2.139190286e-38
2.803051 0.121924 0.090989 2.203691494e-38
2.813889 0.135993 0.086761 2.286631687e-38
2.823959 0.154500 0.091134 2.314218350e-38
2.836000 0.181037 0.088949 2.332585449e-38
2.843437 0.195098 0.093670 2.332585449e-38
2.849163 0.216002 0.090026 2.323401899e-38
2.857955 0.247650 0.089809 2.295851250e-38
2.862046 0.275644 0.090339 2.286667701e-38
2.865688 0.304952 0.090474 2.249861335e-38
2.871000 0.292175 0.104876 2.286667701e-38
2.866333 0.335531 0.090600 2.185324395e-38
2.871000 0.322742 0.104876 2.240569606e-38
3.523913 0.334774 0.092240 1.106634404e-38
2.863000 0.365296 0.090219 2.102384341e-38
3.526167 0.364943 0.091615 1.032841887e-38
2.857792 0.394703 0.089469 1.991785318e-38
3.528158 0.394393 0.090156 9.867799452e-39
3.531167 0.400869 0.097966 9.867798051e-39
2.838571 0.435753 0.079897 1.604454932e-38
2.849050 0.423710 0.090736 1.844272030e-38
3.525053 0.420726 0.093200 9.775963956e-39
2.832200 0.457237 0.085050 1.484672500e-38
2.843800 0.449837 0.097249 2.037882993e-38
2.808000 0.497954 0.081581 1.632329421e-38
2.820343 0.484286 0.087002 1.659952377e-38
2.798875 0.511736 0.081645 2.231422350e-38
2.815667 0.508721 0.092327 2.240678066e-38
3.281200 0.644543 0.088976 2.203836108e-38
3.290000 0.661707 0.088032 2.213055531e-38
3.292083 0.667535 0.089449 2.213091544e-38
3.293222 0.695028 0.089422 2.231494657e-38
3.289200 0.732633 0.090644 2.240714080e-38
3.292526 0.718564 0.089170 2.240714080e-38
3.288828 0.755226 0.090913 2.259117192e-38
3.291000 0.769086 0.101913 2.277520165e-38
3.288567 0.787293 0.089169 2.277484291e-38
3.291000 0.786231 0.096769 2.277520165e-38
3.287167 0.816875 0.088422 2.286667841e-38
3.287678 0.847428 0.090579 2.295887264e-38
3.287179 0.877598 0.091541 2.194400184e-38
3.286941 0.900351 0.088534 1.539199966e-38
3.300429 0.915329 0.092447 1.168762653e-38
3.312600 0.925068 0.090028 1.195809535e-38
3.485923 0.996751 0.089270 1.305472210e-38
3.509400 1.098166 0.089047 2.305070813e-38
3.511400 1.115528 0.089356 2.305070813e-38
3.512923 1.144480 0.089165 2.305070813e-38
3.515034 1.175662 0.090297 2.305070673e-38
3.512960 1.204948 0.089597 2.305070673e-38
3.517360 1.234470 0.090266 2.314254223e-38
3.518967 1.265709 0.090512 2.332621322e-38
3.520160 1.296820 0.090694 2.332585449e-38
3.522400 1.325610 0.091040 2.332585449e-38
3.523407 1.355144 0.091808 2.332585449e-38
3.525950 1.382350 0.091576 2.332585449e-38
3.531000 1.396328 0.083972 2.341768999e-38
3.527273 1.416210 0.089755 2.341768999e-38
3.531556 1.409617 0.095543 2.341768999e-38
3.527120 1.444810 0.091760 2.332585449e-38
3.528304 1.473515 0.088299 2.332585449e-38
3.531000 1.477655 0.090490 2.332585449e-38
3.529739 1.504062 0.088275 2.341768999e-38
3.531500 1.508320 0.094666 2.341768999e-38
3.528692 1.533152 0.085988 2.341768999e-38
3.531833 1.538288 0.099001 2.341768999e-38
3.530000 1.555066 0.075443 2.341768999e-38
3.533321 1.565719 0.090912 2.341768999e-38
3.539333 1.596169 0.090824 2.332585449e-38
3.537031 1.624024 0.091173 2.332585449e-38
3.538912 1.655592 0.090104 2.332585449e-38
3.539500 1.685904 0.090852 2.332585449e-38
3.540936 1.715251 0.090980 2.332585449e-38
3.543080 1.743948 0.089269 2.332585449e-38
3.547346 1.775074 0.088810 2.332621322e-38
3.549600 1.804949 0.089580 2.323401899e-38
3.551111 1.835112 0.090845 1.327042538e-38
3.549778 1.864517 0.088972 7.739749769e-39
3.451000 -1.750918 0.134503 8.945838950e-39
3.437143 -1.723919 0.117432 9.221709776e-39
3.442111 -1.733457 0.126353 9.129872878e-39
3.437500 -1.706148 0.117750 9.221706973e-39
3.441050 -1.701220 0.121142 9.037675847e-39
3.432450 -1.673146 0.121320 9.130231611e-39
3.432452 -1.645635 0.120339 9.222427240e-39
3.430154 -1.613591 0.120751 9.313906807e-39
3.422933 -1.582981 0.121607 9.406461169e-39
3.420600 -1.554765 0.121208 9.406103838e-39
3.415290 -1.524469 0.119881 9.498658200e-39
3.416771 -1.495823 0.120949 9.682690727e-39
3.451727 -1.493167 0.119788 1.309357170e-38
3.486833 -1.502961 0.121378 1.530662975e-38
3.517118 -1.507849 0.119994 1.530663256e-38
3.547588 -1.506023 0.120997 1.503040300e-38
3.576192 -1.497997 0.120202 1.447722782e-38
3.604600 -1.486722 0.120791 1.438467486e-38
3.622833 -1.481338 0.120801 1.429212330e-38
3.635667 -1.465522 0.120462 1.364675109e-38
3.644296 -1.435146 0.120641 1.263295509e-38
3.645200 -1.405289 0.121423 1.226488723e-38
3.643280 -1.375434 0.121124 1.198794021e-38
3.642680 -1.346189 0.121028 1.171171485e-38
3.638560 -1.315439 0.120390 1.143476783e-38
3.634320 -1.284710 0.119716 1.125037657e-38
3.629920 -1.253993 0.119033 1.134221207e-38
3.626039 -1.223122 0.119089 1.125037797e-38
3.620000 -1.180852 0.134734 1.088015492e-38
3.624897 -1.194694 0.120622 1.124965910e-38
3.619000 -1.161180 0.115970 1.125001644e-38
3.621154 -1.166698 0.126069 1.124893744e-38
3.617433 -1.133869 0.119947 1.125037657e-38
3.614923 -1.104648 0.121762 1.125037937e-38
3.615160 -1.075581 0.122460 1.143476783e-38
3.611400 -1.045549 0.121866 1.143476783e-38
3.609600 -1.016253 0.121583 1.134293233e-38
3.607040 -0.986743 0.121178 1.152696346e-38
3.600615 -0.955375 0.120599 1.161916049e-38
3.600034 -0.923918 0.119672 1.180319162e-38
3.597000 -0.892064 0.119579 1.171135472e-38
3.589750 -0.857121 0.117721 1.189574598e-38
3.592059 -0.864082 0.119133 1.189574598e-38
3.587143 -0.828923 0.118021 1.208013864e-38
3.591500 -0.841958 0.124410 1.189574738e-38
3.585600 -0.803292 0.120619 1.217233427e-38
3.587483 -0.775158 0.120431 1.217197554e-38
3.583033 -0.745759 0.120208 1.235636539e-38
3.579571 -0.715675 0.122500 1.244891976e-38
3.578107 -0.683899 0.121651 1.254111679e-38
3.575520 -0.653125 0.121848 1.272515352e-38
3.571600 -0.623922 0.121219 1.290954338e-38
3.567920 -0.594844 0.120626 1.300173621e-38
3.566966 -0.564037 0.120865 1.300173901e-38
3.563462 -0.532453 0.119478 1.337052293e-38
3.560000 -0.511406 0.124996 1.355491559e-38
3.562391 -0.502633 0.119246 1.364710982e-38
3.558500 -0.468849 0.117102 1.355599319e-38
3.562364 -0.482324 0.122301 1.346343883e-38
3.558696 -0.445101 0.117921 1.374038024e-38
3.561400 -0.442243 0.128610 1.383149968e-38
3.555815 -0.413322 0.118062 1.392441417e-38
3.555393 -0.383442 0.120425 1.401661120e-38
3.552000 -0.355242 0.120887 1.420064653e-38
3.549639 -0.324019 0.120505 1.447723202e-38
3.545800 -0.292672 0.119885 1.457014512e-38
3.545800 -0.264600 0.119884 1.484637468e-38
3.544333 -0.233582 0.122457 1.493929337e-38
3.542840 -0.202604 0.122214 1.530735423e-38
3.541920 -0.174486 0.122067 1.539955126e-38
3.543200 -0.143724 0.122270 1.558430405e-38
3.540520 -0.112738 0.121838 1.586089094e-38
3.538560 -0.084630 0.121519 1.595344670e-38
3.538333 -0.053813 0.121481 1.613783937e-38
3.536960 -0.022984 0.121258 1.613819950e-38
3.536720 0.005011 0.121220 1.650626035e-38
3.533100 0.035805 0.120629 1.669029428e-38
3.527154 0.067362 0.118379 1.705871526e-38
3.531429 0.056964 0.122755 1.687432540e-38
2.143000 0.123812 0.110972 8.300845088e-39
2.802500 0.134339 0.108058 1.198758988e-38
2.812000 0.136859 0.105782 2.019228488e-38
2.805750 0.147215 0.108736 7.008308404e-39
2.819100 0.156814 0.108529 1.742533698e-38
2.835200 0.181709 0.111434 1.585909027e-38
2.845500 0.194426 0.110546 2.231314310e-38
2.851370 0.216948 0.111988 1.954727420e-38
2.859840 0.245965 0.113752 1.908701632e-38
2.865864 0.272814 0.115523 1.715019063e-38
2.871000 0.283442 0.110989 2.305034800e-38
2.870000 0.316803 0.116314 1.087908713e-38
2.871778 0.303420 0.113283 1.982242336e-38
2.868895 0.335580 0.113636 1.585944760e-38
2.871000 0.335842 0.109243 2.259009012e-38
3.526250 0.334045 0.119749 1.088159405e-38
3.531000 0.340320 0.114702 1.097378968e-38
2.866857 0.367075 0.109025 2.268192842e-38
2.871333 0.356265 0.115134 1.392298064e-38
3.527100 0.365039 0.119657 9.959995082e-39
2.862571 0.395702 0.107532 2.259081039e-38
3.525808 0.396010 0.123302 9.314265539e-39
3.531667 0.396273 0.109221 9.867442121e-39
2.862000 0.426054 0.107416 2.222274954e-38
3.521429 0.422313 0.120521 1.014510521e-38
2.861600 0.452104 0.107335 2.203835828e-38
3.283909 0.646900 0.119829 2.203872121e-38
3.289556 0.668747 0.127943 2.231458643e-38
3.291952 0.665206 0.116528 2.222275094e-38
3.290000 0.683987 0.132593 2.231494657e-38
3.292235 0.695403 0.119375 2.231530530e-38
3.288742 0.726550 0.119266 2.259081319e-38
3.291200 0.714614 0.121494 2.249933643e-38
3.289821 0.756108 0.121543 2.268300742e-38
3.291000 0.755585 0.113486 2.268300742e-38
3.289636 0.790227 0.122245 2.286703714e-38
3.291160 0.785588 0.118812 2.277484151e-38
3.288212 0.818335 0.119658 2.295887264e-38
3.291000 0.805091 0.117343 2.286703714e-38
3.288219 0.846395 0.119425 2.295887264e-38
3.286789 0.875828 0.118635 2.194436198e-38
3.286530 0.899316 0.121696 1.622391833e-38
3.298000 0.913586 0.118574 1.159867070e-38
3.311667 0.924773 0.118371 1.195845969e-38
3.489167 0.996450 0.122677 1.314907713e-38
3.500000 1.006370 0.118024 1.305363750e-38
3.507500 1.097496 0.119248 2.305070813e-38
3.510033 1.115036 0.119660 2.305070813e-38
3.512900 1.143836 0.120128 2.305070813e-38
3.517750 1.176207 0.120920 2.305070673e-38
3.515633 1.205986 0.120571 2.314254083e-38
3.518567 1.234946 0.121053 2.323437773e-38
3.519056 1.265748 0.121134 2.332621322e-38
3.520000 1.296753 0.118508 2.332585449e-38
3.523520 1.326087 0.119075 2.332585449e-38
3.523889 1.355354 0.118520 2.332585449e-38
3.523286 1.385502 0.119635 2.332585449e-38
3.526480 1.416617 0.119552 2.341768999e-38
3.527720 1.445309 0.120646 2.332585449e-38
3.531000 1.457789 0.109115 2.332621322e-38
3.528529 1.475351 0.122843 2.332585449e-38
3.531333 1.475951 0.112893 2.332621322e-38
3.529545 1.498738 0.116500 2.332585449e-38
3.531882 1.511135 0.123064 2.332585449e-38
3.532600 1.536806 0.120551 2.332585449e-38
3.530000 1.569030 0.128506 2.332621322e-38
3.532478 1.564208 0.119799 2.332585449e-38
3.530000 1.604138 0.126511 2.314254223e-38
3.533909 1.592362 0.119234 2.323401899e-38
3.529500 1.624622 0.122838 2.332621322e-38
3.532500 1.624799 0.116337 2.323401899e-38
3.536960 1.656534 0.121255 2.332585449e-38
3.541400 1.686934 0.121978 2.332621322e-38
3.539556 1.715192 0.122296 2.332621322e-38
3.543385 1.745196 0.120565 2.332585449e-38
3.546969 1.774031 0.119014 2.332585449e-38
3.547031 1.804262 0.120780 2.332585449e-38
3.549121 1.835736 0.119652 1.234882221e-38
3.548967 1.865285 0.120399 7.832660061e-39
3.448000 -1.764184 0.155118 8.945840351e-39
3.438300 -1.732351 0.157778 9.037675847e-39
3.443167 -1.734098 0.149732 9.130228808e-39
3.437000 -1.702808 0.156800 9.129515547e-39
3.440643 -1.708604 0.145116 9.130233012e-39
3.430233 -1.673465 0.149849 9.038037382e-39
3.425333 -1.643628 0.148978 9.222069909e-39
3.425452 -1.616213 0.148730 9.405384972e-39
3.419517 -1.583300 0.150998 9.497217665e-39
3.416960 -1.552771 0.150172 9.497939334e-39
3.415560 -1.525132 0.149920 9.406103838e-39
3.408375 -1.490437 0.147293 9.590496499e-39
3.416538 -1.493583 0.150923 9.774887759e-39
3.451000 -1.491183 0.146737 1.401588953e-38
3.483800 -1.501389 0.151123 1.493784583e-38
3.517625 -1.507437 0.150448 1.521407399e-38
3.542333 -1.503678 0.150168 1.512223990e-38
3.574583 -1.498822 0.150977 1.447686909e-38
3.604917 -1.489019 0.149932 1.410844530e-38
3.622600 -1.481224 0.152427 1.410880263e-38
3.632375 -1.466499 0.149373 1.364782448e-38
3.641867 -1.435607 0.149864 1.254111539e-38
3.644400 -1.404922 0.150289 1.226416976e-38
3.643680 -1.375614 0.150166 1.198758288e-38
3.640320 -1.345148 0.149610 1.171099599e-38
3.638720 -1.315510 0.149342 1.152660332e-38
3.630429 -1.283676 0.149825 1.032626227e-38
3.627833 -1.253129 0.150420 9.309948139e-39
3.624345 -1.223277 0.150332 9.123757612e-39
3.618933 -1.191934 0.148362 1.069216512e-38
3.625333 -1.195743 0.157372 8.746703227e-39
3.619333 -1.165254 0.143251 1.115710194e-38
3.626133 -1.164045 0.153027 1.041809777e-38
3.615214 -1.132210 0.145035 1.078903969e-38
3.628667 -1.135221 0.158253 1.014294861e-38
3.617000 -1.104973 0.145331 1.078939982e-38
3.627000 -1.102069 0.158932 9.959637751e-39
3.611125 -1.074131 0.145484 1.078939842e-38
3.626000 -1.073069 0.161965 9.775246491e-39
3.611333 -1.043608 0.146716 1.088123532e-38
3.626286 -1.047464 0.162927 9.959637751e-39
3.610700 -1.015195 0.147567 1.088159405e-38
3.623600 -1.015266 0.164111 1.023622604e-38
3.609333 -0.984392 0.148296 1.097379108e-38
3.621333 -0.985724 0.163722 1.032842027e-38
3.608130 -0.952719 0.148264 1.097378968e-38
3.622000 -0.962923 0.163837 1.051281153e-38
3.608269 -0.923453 0.150477 1.106562658e-38
3.602560 -0.892597 0.149082 1.097379108e-38
3.600040 -0.863259 0.148656 1.115818234e-38
3.588333 -0.826819 0.141930 1.161916049e-38
3.600000 -0.837150 0.151674 1.106634544e-38
3.587375 -0.805915 0.142958 1.161880176e-38
3.603692 -0.803410 0.156303 1.115782221e-38
3.588167 -0.776485 0.140004 1.189538725e-38
3.603867 -0.775875 0.155017 1.125037657e-38
3.584900 -0.746238 0.143257 1.180355035e-38
3.603500 -0.745272 0.157807 1.115962007e-38
3.584750 -0.714917 0.143232 1.180391188e-38
3.604727 -0.715400 0.158276 1.143548810e-38
3.579700 -0.682452 0.142389 1.198794301e-38
3.599500 -0.684251 0.157124 1.171135472e-38
3.578461 -0.652474 0.144152 1.189539005e-38
3.596571 -0.656246 0.157846 1.171135612e-38
3.579250 -0.624512 0.145515 1.217197554e-38
3.597200 -0.623765 0.159582 1.171207358e-38
3.575333 -0.594487 0.144503 1.235672413e-38
3.595200 -0.594802 0.159239 1.189682498e-38
3.574059 -0.564115 0.143955 1.226488863e-38
3.594833 -0.563338 0.159176 1.208121764e-38
3.574867 -0.533934 0.144428 1.263331242e-38
3.596400 -0.532259 0.159445 1.244927989e-38
3.573158 -0.503493 0.146534 1.281770508e-38
3.592000 -0.514341 0.158690 1.254111679e-38
3.559500 -0.466196 0.136195 1.355491279e-38
3.571429 -0.476662 0.145061 1.281734915e-38
3.591800 -0.474407 0.158656 1.281735055e-38
3.559667 -0.446480 0.136223 1.355491279e-38
3.573471 -0.444349 0.146864 1.309393184e-38
3.591000 -0.442932 0.158519 1.300209354e-38
3.557800 -0.412364 0.135913 1.355563025e-38
3.576214 -0.415094 0.149922 1.300209634e-38
3.592000 -0.408888 0.158690 1.272550805e-38
3.557833 -0.384180 0.139678 1.346271716e-38
3.578000 -0.385435 0.152689 1.327832450e-38
3.558800 -0.356125 0.141718 1.318649040e-38
3.575545 -0.354173 0.152786 1.327868323e-38
3.557125 -0.322093 0.142847 1.327832730e-38
3.577125 -0.326589 0.154021 1.346271716e-38
3.555857 -0.291358 0.142835 1.364746435e-38
3.576444 -0.296017 0.154141 1.355527012e-38
3.554000 -0.265426 0.143730 1.383149968e-38
3.580000 -0.262358 0.156632 1.364710842e-38
3.553167 -0.234377 0.143589 1.410844810e-38
3.576200 -0.233625 0.155980 1.392369531e-38
3.552500 -0.203376 0.143476 1.410844810e-38
3.574200 -0.205108 0.155637 1.401589094e-38
3.550800 -0.175117 0.143189 1.420064233e-38
3.572833 -0.173844 0.155402 1.429247642e-38
3.596500 -0.175496 0.165171 1.005147885e-38
3.548417 -0.144041 0.142787 1.466162328e-38
3.570600 -0.142554 0.155019 1.447687189e-38
3.597000 -0.144129 0.165258 1.051245980e-38
3.547600 -0.113093 0.142649 1.475381891e-38
3.569200 -0.114180 0.154779 1.438467346e-38
3.594800 -0.115473 0.164876 1.014367448e-38
3.545600 -0.084922 0.142312 1.475417905e-38
3.567400 -0.085822 0.154470 1.493820597e-38
3.592834 -0.084013 0.164535 1.060537010e-38
3.547500 -0.054101 0.142633 1.512332450e-38
3.570167 -0.054801 0.154945 1.512296016e-38
3.594600 -0.052707 0.164841 1.088195839e-38
3.544000 -0.023126 0.142042 1.530807449e-38
3.569600 -0.023657 0.154848 1.539954705e-38
3.595000 -0.027040 0.164911 1.014439335e-38
3.547300 0.004888 0.142599 1.558429985e-38
3.572200 0.004599 0.155294 1.539990438e-38
3.595667 0.010038 0.165026 1.060573163e-38
3.544000 0.035787 0.142043 1.576833518e-38
3.569667 0.035752 0.154859 1.549210422e-38
3.594000 0.035720 0.164737 1.042134177e-38
3.539875 0.063812 0.141346 1.585981194e-38
3.568333 0.061211 0.154631 1.567541368e-38
3.594333 0.061392 0.164795 1.023658758e-38
3.530000 0.334635 0.136884 9.222072712e-39
3.538400 0.342177 0.141657 6.271812556e-39
3.566000 0.345681 0.156119 4.060556573e-39
3.528000 0.377232 0.138409 4.888519376e-39
3.538636 0.365015 0.142921 5.810834407e-39
3.573900 0.364412 0.158993 3.229716904e-39
3.521000 0.393154 0.140013 3.689974786e-39
3.533000 0.385247 0.148569 6.917181965e-39
3.515333 0.416578 0.139981 7.287760949e-39
3.282417 0.646340 0.149169 2.213055531e-38
3.289250 0.662825 0.144878 2.231494657e-38
3.291667 0.668369 0.154617 2.231494657e-38
3.289750 0.691642 0.144116 2.240714080e-38
3.291781 0.695011 0.151726 2.240714080e-38
3.289125 0.725547 0.149998 2.268300742e-38
3.291500 0.724204 0.151727 2.268300742e-38
3.289061 0.756896 0.149868 2.268300742e-38
3.291000 0.743369 0.156777 2.268300742e-38
3.288829 0.786869 0.150149 2.286703574e-38
3.291000 0.774230 0.158491 2.286703714e-38
3.286500 0.816691 0.149935 2.305070813e-38
3.287147 0.846932 0.149454 2.305070813e-38
3.286695 0.876656 0.151112 2.203583734e-38
3.285500 0.899400 0.147464 1.594625104e-38
3.298429 0.913966 0.153267 1.187633099e-38
3.312500 0.925037 0.149627 1.223539830e-38
3.488250 0.997074 0.149147 1.333203346e-38
3.500000 1.006370 0.165029 1.351318352e-38
3.510400 1.098519 0.150242 2.305070813e-38
3.514280 1.116559 0.150917 2.295887264e-38
3.514000 1.146018 0.151065 2.305070673e-38
3.514630 1.176575 0.150770 2.305070673e-38
3.514880 1.205694 0.151021 2.314254223e-38
3.516889 1.235514 0.151162 2.332621322e-38
3.518214 1.266401 0.151796 2.332621322e-38
3.521667 1.297447 0.149408 2.332621322e-38
3.521273 1.326643 0.149762 2.332585449e-38
3.520781 1.356416 0.149253 2.332585449e-38
3.523774 1.386973 0.149330 2.332585449e-38
3.523767 1.415378 0.149776 2.341768999e-38
3.523583 1.445945 0.149743 2.341768999e-38
3.525481 1.476272 0.150996 2.341733125e-38
3.528417 1.503100 0.159413 2.332585449e-38
3.533588 1.506375 0.145050 2.332585449e-38
3.534281 1.535364 0.150010 2.323437773e-38
3.533100 1.565007 0.151382 2.314218350e-38
3.530000 1.596957 0.164811 2.222130760e-38
3.532750 1.594182 0.151146 2.277412124e-38
3.536286 1.626383 0.149136 2.305034800e-38
3.538560 1.657383 0.149522 2.323401899e-38
3.539240 1.685762 0.149637 2.323437773e-38
3.539640 1.713999 0.149714 2.323437773e-38
3.540800 1.745464 0.149911 2.332621322e-38
3.544250 1.777806 0.150732 2.332621322e-38
3.542923 1.804907 0.150057 2.332585449e-38
3.547120 1.836091 0.150992 1.124211591e-38
3.548160 1.864799 0.151171 7.556434707e-39
3.444944 -1.761412 0.175675 8.945483020e-39
3.437454 -1.735781 0.180414 8.945480217e-39
3.440700 -1.731094 0.178267 9.129512744e-39
3.434870 -1.703235 0.180657 9.129512744e-39
3.440000 -1.717124 0.175968 9.313902603e-39
3.431267 -1.672439 0.179382 9.221351043e-39
3.431952 -1.645397 0.180389 9.038035981e-39
3.425323 -1.614586 0.180531 9.222428642e-39
3.421161 -1.581469 0.180978 9.222071311e-39
3.419000 -1.553520 0.179667 9.221711177e-39
3.414900 -1.524776 0.179344 9.314624272e-39
3.415459 -1.495006 0.179672 9.498659601e-39
3.448400 -1.490644 0.180251 1.337015859e-38
3.484750 -1.500499 0.180179 1.484564880e-38
3.511000 -1.504006 0.179943 1.503004146e-38
3.542632 -1.502938 0.180924 1.503004286e-38
3.573520 -1.496199 0.179537 1.456942345e-38
3.604417 -1.484954 0.179173 1.401624687e-38
3.622000 -1.480931 0.189738 1.420063813e-38
3.631647 -1.464748 0.180771 1.346343182e-38
3.640839 -1.435588 0.179211 1.254075665e-38
3.643680 -1.404595 0.179147 1.226416836e-38
3.640280 -1.374075 0.178551 1.189538584e-38
3.637517 -1.343511 0.180455 1.161915909e-38
3.634233 -1.313566 0.180378 1.106562518e-38
3.633417 -1.283599 0.180239 6.907102425e-39
3.618333 -1.245351 0.190035 6.628351931e-39
3.626684 -1.255079 0.179503 5.979745523e-39
3.615056 -1.222943 0.183376 7.727502420e-39
3.622400 -1.231298 0.173114 6.804106988e-39
3.608813 -1.202244 0.183761 8.919577215e-39
3.637800 -1.197669 0.176387 9.105409010e-39
3.662500 -1.195347 0.181718 9.299153937e-39
3.687000 -1.194091 0.190005 9.676215327e-39
3.640600 -1.165776 0.167027 9.863484854e-39
3.663000 -1.162747 0.176701 9.680173995e-39
3.683900 -1.164848 0.189133 9.496141468e-39
3.637800 -1.135777 0.166547 9.958197216e-39
3.666000 -1.130311 0.179418 9.497939334e-39
3.682857 -1.137625 0.190206 9.405384972e-39
3.636000 -1.109084 0.166238 9.683048059e-39
3.666200 -1.102659 0.180185 9.774527625e-39
3.683400 -1.105960 0.191977 9.498300869e-39
3.664700 -1.072945 0.179923 9.867442121e-39
3.681600 -1.075984 0.191658 9.683050861e-39
3.648000 -1.032241 0.174100 1.023586871e-38
3.668545 -1.043757 0.183518 9.959279018e-39
3.681000 -1.055247 0.191552 9.959637751e-39
3.646750 -1.014411 0.173884 1.005183338e-38
3.671700 -1.014025 0.186985 1.005147325e-38
3.646000 -0.985152 0.173754 1.032842027e-38
3.674000 -0.985530 0.187390 1.014402901e-38
3.642200 -0.952061 0.173095 1.042061590e-38
3.667200 -0.954138 0.186192 1.023622464e-38
3.642200 -0.923083 0.173095 1.051281293e-38
3.667300 -0.924967 0.186209 1.032878040e-38
3.637000 -0.892578 0.172193 1.051317587e-38
3.659900 -0.893580 0.184905 1.051317587e-38
3.633400 -0.862614 0.171569 1.069828319e-38
3.661300 -0.864846 0.185152 1.051389053e-38
3.634800 -0.834122 0.171812 1.079011869e-38
3.663182 -0.834634 0.185749 1.069720279e-38
3.637200 -0.805871 0.172228 1.097379108e-38
3.662445 -0.805579 0.185029 1.069720419e-38
3.637000 -0.776909 0.172193 1.125037797e-38
3.659273 -0.775306 0.185059 1.088159545e-38
3.633333 -0.744174 0.171557 1.115925994e-38
3.658700 -0.744721 0.184694 1.097414981e-38
3.631600 -0.711992 0.171257 1.106670978e-38
3.658533 -0.714591 0.187583 1.078976136e-38
3.639273 -0.683314 0.175754 1.134329247e-38
3.661300 -0.684171 0.190983 1.088231432e-38
3.634900 -0.652087 0.174729 1.161916189e-38
3.659300 -0.654588 0.190628 1.106598811e-38
3.620000 -0.614285 0.169245 1.171243372e-38
3.636000 -0.624860 0.175643 1.171207499e-38
3.658100 -0.625215 0.190414 1.125002064e-38
3.618000 -0.585123 0.168899 1.171243372e-38
3.638500 -0.593852 0.177674 1.171207499e-38
3.658889 -0.596252 0.191524 1.134257500e-38
3.617000 -0.576302 0.168725 1.198902061e-38
3.638500 -0.563685 0.177771 1.189610751e-38
3.657429 -0.563528 0.191540 1.125037657e-38
3.619000 -0.524948 0.169072 1.217233287e-38
3.637214 -0.536507 0.178441 1.208085751e-38
3.659200 -0.532254 0.193516 1.032949927e-38
3.614833 -0.504094 0.168350 1.244892116e-38
3.640200 -0.505642 0.181434 1.208014144e-38
3.659000 -0.503092 0.193480 8.668900334e-39
3.617800 -0.473001 0.168864 1.263295649e-38
3.641909 -0.475401 0.181998 1.235672833e-38
3.656200 -0.473527 0.192979 6.824984934e-39
3.614400 -0.443731 0.168274 1.088159405e-38
3.638091 -0.443213 0.180800 9.867442121e-39
3.652800 -0.443900 0.192371 5.718996108e-39
3.615000 -0.415110 0.168379 9.775246491e-39
3.634412 -0.411164 0.184665 1.032878040e-38
3.611800 -0.385956 0.167824 9.959637751e-39
3.631450 -0.382883 0.185664 1.005219351e-38
3.613167 -0.354582 0.168061 9.867443522e-39
3.630850 -0.353943 0.185554 1.023658618e-38
3.610400 -0.322689 0.167581 9.959640553e-39
3.629600 -0.324932 0.185333 1.023622604e-38
3.609800 -0.293953 0.167477 9.959639152e-39
3.629200 -0.296045 0.185262 1.042097603e-38
3.606000 -0.264916 0.166818 1.014367448e-38
3.626375 -0.264040 0.184761 1.078940122e-38
3.608250 -0.230734 0.171522 1.032842447e-38
3.623177 -0.233753 0.184699 1.115854528e-38
3.611625 -0.203436 0.176779 1.069720839e-38
3.622000 -0.203176 0.183982 1.143477203e-38
3.614824 -0.174245 0.179509 1.078940262e-38
3.621500 -0.172447 0.185811 1.254111819e-38
3.614583 -0.143742 0.182188 1.134257500e-38
3.621000 -0.147718 0.184523 1.189574738e-38
3.614333 -0.114544 0.182305 1.180391328e-38
3.621667 -0.122580 0.186800 1.337123619e-38
3.612696 -0.084185 0.182207 1.244964423e-38
3.612500 -0.053245 0.182295 1.263475435e-38
3.612952 -0.024017 0.181697 1.254256153e-38
3.612318 0.003359 0.180963 1.263475716e-38
3.609458 0.035699 0.181752 1.300389841e-38
3.609714 0.063136 0.182615 1.318864700e-38
3.263750 0.581140 0.194057 2.185432855e-38
3.269500 0.607789 0.192683 2.213055531e-38
3.279400 0.639296 0.181634 2.222275094e-38
3.290000 0.659565 0.180153 2.231530530e-38
3.291214 0.666082 0.182598 2.231530530e-38
3.289588 0.697953 0.179996 2.249933502e-38
3.291316 0.691195 0.182918 2.240714220e-38
3.289444 0.722985 0.177616 2.259117052e-38
3.291741 0.726216 0.183022 2.259117192e-38
3.288727 0.756810 0.181884 2.277520165e-38
3.291000 0.743369 0.173921 2.268300742e-38
3.287639 0.786186 0.180972 2.295851250e-38
3.288111 0.817141 0.181064 2.295887264e-38
3.286176 0.846652 0.181285 2.305070673e-38
3.287200 0.876393 0.179634 2.212803297e-38
3.286048 0.899814 0.181758 1.567002708e-38
3.302167 0.916609 0.178680 1.178234310e-38
3.313500 0.925352 0.180906 1.214393135e-38
3.486143 0.995219 0.181422 1.351713798e-38
3.500500 1.006531 0.173414 1.360393721e-38
3.505500 1.096790 0.179858 2.295887264e-38
3.512167 1.115805 0.181083 2.305070813e-38
3.513200 1.143939 0.181275 2.305070673e-38
3.515438 1.174642 0.179951 2.314254223e-38
3.514069 1.205763 0.180955 2.314254223e-38
3.517500 1.234096 0.179928 2.332621322e-38
3.518900 1.265679 0.179541 2.332621322e-38
3.517480 1.295700 0.179281 2.332621322e-38
3.519200 1.324245 0.179596 2.332585449e-38
3.521250 1.354758 0.179374 2.332585449e-38
3.524741 1.386704 0.181222 2.332621322e-38
3.527080 1.416888 0.181031 2.332585449e-38
3.526846 1.445326 0.181419 2.332585449e-38
3.525207 1.475068 0.180309 2.332585449e-38
3.527409 1.504812 0.181096 2.332585449e-38
3.531000 1.519250 0.181750 2.332621322e-38
3.529750 1.543770 0.184314 2.305070813e-38
3.532478 1.535527 0.180075 2.314254223e-38
3.529333 1.564968 0.186099 2.157558086e-38
3.531375 1.562042 0.172738 2.148338523e-38
3.533345 1.596368 0.181795 2.111495864e-38
3.529750 1.634527 0.187107 2.212910917e-38
3.533808 1.625377 0.178174 2.129898977e-38
3.529667 1.643326 0.190815 2.305070673e-38
3.536750 1.658017 0.179195 2.240569746e-38
3.529833 1.683442 0.189915 2.305070813e-38
3.535643 1.686599 0.177397 2.305070813e-38
3.539320 1.716065 0.179907 2.305070673e-38
3.544154 1.744977 0.179190 2.332621322e-38
3.542861 1.774672 0.181111 2.332585449e-38
3.544067 1.806226 0.181329 2.332549576e-38
3.541848 1.835344 0.181013 1.032016382e-38
3.546400 1.865092 0.180513 7.279850620e-39
3.441000 -1.750249 0.200548 9.130230209e-39
3.437692 -1.731571 0.207196 9.037674446e-39
3.441353 -1.735156 0.212898 9.129870076e-39
3.432346 -1.701728 0.209261 9.221349642e-39
3.440000 -1.717124 0.222030 9.406095430e-39
3.429844 -1.674248 0.208841 9.312830610e-39
3.433571 -1.646061 0.210306 9.221352444e-39
3.429143 -1.612277 0.210969 9.222069909e-39
3.430000 -1.585253 0.211498 9.314265539e-39
3.423304 -1.555314 0.210577 9.406817099e-39
3.408500 -1.510606 0.210304 9.406463972e-39
3.412643 -1.524330 0.211136 9.314266940e-39
3.408800 -1.496470 0.212688 9.313909609e-39
3.417808 -1.490322 0.209062 9.866724656e-39
3.449200 -1.488891 0.210303 1.456870598e-38
3.478000 -1.498383 0.210496 1.475309864e-38
3.512875 -1.504991 0.210717 1.484529287e-38
3.546350 -1.503187 0.210382 1.484636767e-38
3.574364 -1.494985 0.210532 1.447758515e-38
3.605217 -1.485904 0.210982 1.401624827e-38
3.622667 -1.481257 0.204247 1.392405124e-38
3.618000 -1.478976 0.220633 1.429283376e-38
3.630767 -1.465003 0.211513 1.346307449e-38
3.639571 -1.434112 0.210674 1.244820369e-38
3.642800 -1.404189 0.210860 1.207977851e-38
3.641000 -1.373759 0.208920 1.180355035e-38
3.637115 -1.344175 0.212034 1.161879895e-38
3.635040 -1.313911 0.212312 1.060392676e-38
3.640461 -1.287533 0.210430 6.722355236e-39
3.614167 -1.245067 0.208896 6.349976985e-39
3.627000 -1.261748 0.212101 6.810595000e-39
3.605261 -1.224108 0.210236 7.546722307e-39
3.671000 -1.209635 0.219012 9.016091647e-39
3.702000 -1.211070 0.212977 9.951724618e-39
3.725500 -1.213341 0.220251 9.495421201e-39
3.600167 -1.199725 0.209616 9.103613946e-39
3.633000 -1.199810 0.208435 9.196527041e-39
3.658000 -1.203046 0.209304 8.648033599e-39
3.698571 -1.199045 0.201402 9.860249256e-39
3.724923 -1.195965 0.216266 9.403228373e-39
3.699400 -1.164828 0.200709 9.404666106e-39
3.725417 -1.163744 0.215783 9.313549476e-39
3.695800 -1.134017 0.200065 9.405745105e-39
3.722091 -1.135593 0.214502 9.037682853e-39
3.696600 -1.104838 0.200208 9.498661003e-39
3.723083 -1.103442 0.215360 9.406463972e-39
3.699556 -1.072463 0.203365 9.406463972e-39
3.726091 -1.075412 0.219551 9.314268342e-39
3.698500 -1.043595 0.203503 9.590137767e-39
3.727600 -1.044568 0.220636 9.406463972e-39
3.695500 -1.013113 0.202964 9.590496499e-39
3.721800 -1.012907 0.219571 9.406822704e-39
3.694100 -0.983211 0.202711 9.683409594e-39
3.720900 -0.982919 0.219407 9.407184239e-39
3.690800 -0.952734 0.202118 9.867442121e-39
3.719000 -0.953959 0.219387 9.499019735e-39
3.678000 -0.910659 0.196880 1.005183338e-38
3.690900 -0.922752 0.203316 9.959637751e-39
3.718333 -0.926710 0.219266 9.591934231e-39
3.676600 -0.892669 0.196629 9.867443522e-39
3.696000 -0.892492 0.208943 9.775606625e-39
3.716200 -0.892473 0.221505 9.683410995e-39
3.679000 -0.864070 0.197059 9.684129861e-39
3.693615 -0.863706 0.206479 9.776325491e-39
3.717000 -0.863049 0.221653 9.868519719e-39
3.678500 -0.843417 0.196969 1.032878040e-38
3.693615 -0.832910 0.206479 1.005219351e-38
3.716800 -0.833334 0.221616 9.867802255e-39
3.675000 -0.801471 0.196343 1.023622464e-38
3.692700 -0.806171 0.207758 1.005219351e-38
3.714800 -0.803164 0.221247 1.005219351e-38
3.673500 -0.777657 0.196075 1.023730364e-38
3.692917 -0.774821 0.207405 1.014510661e-38
3.715400 -0.773667 0.221357 9.961076884e-39
3.672500 -0.742315 0.195896 1.060500716e-38
3.693928 -0.743396 0.209839 1.023622604e-38
3.712500 -0.752207 0.220822 1.005291238e-38
3.690750 -0.713483 0.209468 1.051281293e-38
3.710667 -0.713274 0.220484 1.051281153e-38
3.693467 -0.683705 0.211438 1.032949927e-38
3.691867 -0.653917 0.211145 1.051353180e-38
3.678667 -0.617836 0.202860 1.069828319e-38
3.692583 -0.625620 0.212744 1.051389193e-38
3.678200 -0.594302 0.202775 1.078940262e-38
3.694800 -0.594671 0.214619 1.069756292e-38
3.676400 -0.564662 0.202450 1.078939982e-38
3.693100 -0.564901 0.214307 1.060608616e-38
3.677200 -0.535523 0.202594 1.005291238e-38
3.693364 -0.534174 0.214089 9.776685625e-39
3.677800 -0.506335 0.202703 8.300117815e-39
3.694500 -0.503328 0.214564 7.563987705e-39
3.673714 -0.473877 0.203637 6.917536494e-39
3.694909 -0.474480 0.218656 6.641668470e-39
3.672600 -0.446945 0.204691 6.272168486e-39
3.696900 -0.444798 0.220896 7.562551374e-39
3.637667 -0.405424 0.210386 1.254112239e-38
3.662889 -0.421483 0.210381 1.217269721e-38
3.627000 -0.382284 0.210811 1.263295789e-38
3.620000 -0.341067 0.215261 1.263440403e-38
3.622125 -0.353319 0.209664 1.254220420e-38
3.618933 -0.320236 0.212760 1.281843516e-38
3.623100 -0.329353 0.204901 1.263403969e-38
3.619187 -0.293527 0.210435 1.318613727e-38
3.622778 -0.297909 0.208106 1.327797137e-38
3.615700 -0.265870 0.211578 1.327905177e-38
3.622600 -0.266548 0.198480 1.309537657e-38
3.614871 -0.233743 0.209106 1.337232360e-38
3.615080 -0.202636 0.208591 1.364855316e-38
3.613960 -0.173842 0.208383 1.346344303e-38
3.610633 -0.144944 0.210628 1.355491419e-38
3.609300 -0.116205 0.210373 1.374038445e-38
3.609771 -0.084934 0.210056 1.466234495e-38
3.607600 -0.053098 0.210057 1.493857451e-38
3.608633 -0.024474 0.210247 1.484709915e-38
3.607067 0.004201 0.209956 1.503149181e-38
3.605083 0.035706 0.209590 1.512332870e-38
3.604053 0.062062 0.208642 1.503149041e-38
3.278000 0.488913 0.213307 2.120896194e-38
3.284850 0.515229 0.215323 2.139335320e-38
3.284591 0.544181 0.216295 2.157774446e-38
3.291000 0.558204 0.225356 2.166994009e-38
3.284370 0.576916 0.214068 2.176213292e-38
3.291000 0.563348 0.225356 2.166994009e-38
3.284273 0.606708 0.212113 2.194652558e-38
3.287429 0.632393 0.204414 2.222275094e-38
3.291692 0.636692 0.217590 2.222275094e-38
3.290000 0.676275 0.207146 2.231494657e-38
3.292296 0.662505 0.211149 2.231530530e-38
3.288206 0.694453 0.211158 2.249897629e-38
3.291000 0.684219 0.225356 2.240750093e-38
3.289304 0.726401 0.216948 2.259117192e-38
3.291615 0.722945 0.204118 2.268300742e-38
3.285805 0.754891 0.211413 2.286703574e-38
3.288556 0.786433 0.211986 2.295887264e-38
3.288000 0.816742 0.212086 2.305070813e-38
3.287294 0.848333 0.212172 2.305070673e-38
3.291000 0.835951 0.204782 2.305070813e-38
3.284485 0.876537 0.211830 2.212767284e-38
3.287286 0.900198 0.210617 1.567038582e-38
3.300500 0.916086 0.209328 1.169158800e-38
3.310667 0.924458 0.211439 1.186878219e-38
3.489438 0.997455 0.209973 1.324163570e-38
3.507600 1.097531 0.210742 2.305070813e-38
3.510640 1.115253 0.211330 2.295851250e-38
3.514000 1.144239 0.211982 2.305070673e-38
3.514441 1.175612 0.210102 2.305070673e-38
3.515000 1.205310 0.211534 2.314254223e-38
3.516552 1.234532 0.210170 2.323401899e-38
3.518945 1.265699 0.210152 2.332621322e-38
3.518000 1.295918 0.209974 2.332621322e-38
3.517059 1.325293 0.210444 2.332585449e-38
3.521613 1.357258 0.210222 2.332585449e-38
3.521355 1.385888 0.210351 2.332621322e-38
3.521188 1.415244 0.210591 2.332585449e-38
3.524138 1.444768 0.210676 2.332585449e-38
3.526467 1.476117 0.209747 2.332585449e-38
3.526379 1.505446 0.212066 2.332585449e-38
3.531000 1.519250 0.198512 2.332621322e-38
3.529400 1.529635 0.217198 2.323437773e-38
3.532150 1.537979 0.207951 2.305070673e-38
3.527600 1.565583 0.210336 2.166777649e-38
3.531000 1.552774 0.206894 2.295851391e-38
3.529333 1.587307 0.212159 2.295851391e-38
3.532687 1.599742 0.207914 2.286631828e-38
3.526667 1.638012 0.221873 2.305070813e-38
3.535296 1.625380 0.210722 2.295851250e-38
3.528654 1.655099 0.208163 2.295851250e-38
3.531333 1.659113 0.215340 2.286667701e-38
3.529572 1.679709 0.208616 2.295851250e-38
3.533176 1.690032 0.210434 2.295851250e-38
3.536500 1.716224 0.211442 2.314218350e-38
3.541516 1.746499 0.208982 2.332621322e-38
3.541320 1.776593 0.211668 2.332585449e-38
3.542560 1.805350 0.211909 2.332549576e-38
3.542452 1.835672 0.211344 1.105952532e-38
3.543524 1.865223 0.211292 7.463521612e-39
3.441000 -1.750249 0.241205 8.945117281e-39
3.439000 -1.739096 0.244400 9.036958382e-39
3.440737 -1.732115 0.241150 9.129514146e-39
3.436261 -1.703354 0.239277 9.220992311e-39
3.440000 -1.714415 0.251835 9.129158216e-39
3.431720 -1.674337 0.239272 9.221352444e-39
3.428719 -1.644570 0.240666 9.221711177e-39
3.428000 -1.614687 0.241826 9.222067107e-39
3.428562 -1.585105 0.240627 9.314265539e-39
3.422286 -1.554920 0.240766 9.222071311e-39
3.415240 -1.524963 0.241209 9.222428642e-39
3.408909 -1.499127 0.239875 9.314622870e-39
3.418435 -1.490640 0.239770 9.774527625e-39
3.450714 -1.491228 0.241676 1.373930405e-38
3.482250 -1.499204 0.242940 1.456870598e-38
3.512571 -1.504786 0.238679 1.466054288e-38
3.544263 -1.503175 0.240879 1.456906612e-38
3.572655 -1.493120 0.240920 1.429283516e-38
3.604722 -1.484555 0.239733 1.383185561e-38
3.621000 -1.480442 0.247095 1.373965998e-38
3.618667 -1.477384 0.228425 1.383185561e-38
3.628931 -1.463623 0.240415 1.337087746e-38
3.638000 -1.433782 0.241788 1.235636539e-38
3.642520 -1.404053 0.242672 1.207941977e-38
3.642357 -1.375638 0.240777 1.171135472e-38
3.639320 -1.344706 0.242048 1.134257220e-38
3.632480 -1.312804 0.240710 1.069719999e-38
3.643333 -1.288036 0.240173 6.908542960e-39
3.650250 -1.284201 0.245638 6.722713968e-39
3.615000 -1.244359 0.233844 6.258138686e-39
3.634500 -1.257624 0.242843 6.355010449e-39
3.601250 -1.222099 0.234608 6.811312465e-39
3.625000 -1.223152 0.250769 5.900151770e-39
3.678000 -1.209479 0.232035 9.479948063e-39
3.708000 -1.215397 0.225907 1.031906240e-38
3.719000 -1.218522 0.239814 1.022866604e-38
3.751286 -1.217393 0.244253 9.403943036e-39
3.600333 -1.201703 0.234428 9.757622360e-39
3.630625 -1.201607 0.243967 1.271471665e-38
3.664000 -1.206544 0.239087 1.021931517e-38
3.738000 -1.191352 0.225527 9.312110342e-39
3.753546 -1.192370 0.242041 7.468916611e-39
3.739000 -1.167846 0.225711 9.221353846e-39
3.755263 -1.165714 0.242940 6.916102965e-39
3.738200 -1.131723 0.225564 9.129877082e-39
3.751947 -1.136081 0.242621 7.378160115e-39
3.738000 -1.110755 0.225527 9.222072712e-39
3.749650 -1.105922 0.242658 7.470713076e-39
3.745900 -1.074673 0.241954 7.655463068e-39
3.737000 -1.032811 0.231311 9.037682853e-39
3.743889 -1.045068 0.242566 7.470714477e-39
3.736600 -1.011788 0.231236 9.314269743e-39
3.742733 -1.013790 0.244339 7.101573225e-39
3.737273 -0.977825 0.236789 8.577422169e-39
3.741222 -0.988730 0.245378 6.456203816e-39
3.734600 -0.953888 0.239217 8.115725154e-39
3.740000 -0.965107 0.249791 3.690334920e-39
3.734455 -0.925969 0.240326 7.654386871e-39
3.733400 -0.894491 0.239591 7.839498398e-39
3.731947 -0.865062 0.239157 8.023888256e-39
3.729000 -0.835090 0.237343 8.761095964e-39
3.729000 -0.804794 0.238229 8.392670776e-39
3.725100 -0.776136 0.238016 7.655107138e-39
3.722650 -0.745803 0.237553 7.746583902e-39
3.724150 -0.716448 0.237836 7.839138264e-39
3.719100 -0.685586 0.236882 8.023169390e-39
3.715250 -0.655073 0.236153 8.115365020e-39
3.709000 -0.618217 0.229051 1.042097603e-38
3.712643 -0.627429 0.238198 7.193768855e-39
3.713500 -0.595441 0.234836 9.037321318e-39
3.712267 -0.565587 0.232626 1.032806014e-38
3.709000 -0.523552 0.237926 8.023530925e-39
3.712786 -0.536915 0.232299 9.498662404e-39
3.707200 -0.502345 0.234032 6.548399446e-39
3.710000 -0.517810 0.229239 8.116445421e-39
3.701933 -0.478229 0.236188 5.441691754e-39
3.702353 -0.442855 0.239091 8.115725154e-39
3.632555 -0.403568 0.239434 1.254148253e-38
3.665555 -0.419932 0.236792 1.263295649e-38
3.620000 -0.387082 0.249773 1.281735055e-38
3.623520 -0.382271 0.238954 1.300174181e-38
3.627905 -0.355217 0.238175 9.223155916e-39
3.619750 -0.323782 0.228155 1.171100720e-38
3.624111 -0.324933 0.233956 7.562917113e-39
3.619600 -0.285806 0.231289 8.393396648e-39
3.624800 -0.300180 0.234024 8.115730759e-39
3.615933 -0.265893 0.231729 8.392673578e-39
3.615462 -0.237132 0.230313 9.037324121e-39
3.614692 -0.203926 0.230604 8.854011861e-39
3.617800 -0.174111 0.229217 1.032878741e-38
3.608400 -0.144811 0.230270 6.548765185e-39
3.605800 -0.116035 0.229766 7.103015161e-39
3.611000 -0.082817 0.232687 9.960363623e-39
3.606700 -0.053080 0.232806 1.005291799e-38
3.603286 -0.021908 0.230914 9.592299970e-39
3.608000 0.004193 0.233060 1.023802951e-38
3.607333 0.032833 0.231976 9.868530930e-39
3.601333 0.061438 0.231761 1.079012429e-38
3.289500 0.493666 0.235316 2.111712645e-38
3.297000 0.487152 0.242106 2.120896054e-38
3.289333 0.501349 0.235281 2.102564968e-38
3.293300 0.516423 0.240263 2.130187644e-38
3.290000 0.545164 0.230284 2.157774446e-38
3.292692 0.545651 0.242744 2.157810320e-38
3.289625 0.583653 0.234059 2.185433135e-38
3.291864 0.573566 0.243316 2.166994009e-38
3.289000 0.605869 0.239953 2.194652558e-38
3.291000 0.612211 0.243358 2.194688431e-38
3.290000 0.636856 0.237139 2.213091544e-38
3.292200 0.636385 0.240281 2.213055531e-38
3.289556 0.667034 0.240184 2.231494657e-38
3.291500 0.659577 0.236395 2.222275094e-38
3.289428 0.702214 0.240809 2.249933643e-38
3.291563 0.687565 0.240587 2.240714220e-38
3.288788 0.725521 0.241700 2.268300742e-38
3.287389 0.755295 0.242559 2.277484291e-38
3.286306 0.785829 0.242322 2.295851391e-38
3.287083 0.816853 0.242494 2.305070813e-38
3.286970 0.847868 0.241303 2.305070813e-38
3.284647 0.876998 0.242259 2.194364171e-38
3.286737 0.900145 0.241200 1.539595693e-38
3.302000 0.916557 0.240621 1.169158520e-38
3.312600 0.925068 0.240350 1.232903867e-38
3.489438 0.997802 0.239250 1.342638849e-38
3.505333 1.096731 0.240769 2.295887264e-38
3.509630 1.114275 0.240108 2.295887264e-38
3.512360 1.143636 0.239427 2.295887264e-38
3.514033 1.174806 0.239768 2.305070813e-38
3.517840 1.206840 0.240542 2.305070813e-38
3.515833 1.236637 0.240134 2.314254223e-38
3.515240 1.266973 0.240013 2.323437773e-38
3.518800 1.296254 0.240733 2.323437773e-38
3.520154 1.325292 0.240587 2.332621322e-38
3.521690 1.356424 0.241703 2.332621322e-38
3.521920 1.386684 0.241370 2.332621322e-38
3.523760 1.415374 0.241739 2.332621322e-38
3.523741 1.444473 0.241118 2.332621322e-38
3.526879 1.475806 0.240347 2.323401899e-38
3.526200 1.505741 0.242241 2.323437773e-38
3.525647 1.535331 0.239333 2.314218350e-38
3.526767 1.566836 0.240490 2.157522073e-38
3.528000 1.590346 0.245176 2.295815237e-38
3.532333 1.601514 0.237518 2.286631687e-38
3.527750 1.636959 0.241159 2.295851250e-38
3.533929 1.624346 0.240007 2.286631687e-38
3.527276 1.655784 0.240917 2.305034800e-38
3.531500 1.667583 0.226548 2.314254363e-38
3.527467 1.678248 0.238031 2.305034800e-38
3.532333 1.693188 0.244879 2.305070673e-38
3.529667 1.714068 0.254110 2.323437773e-38
3.536533 1.716194 0.239289 2.314254223e-38
3.534700 1.744831 0.241161 2.332585449e-38
3.539962 1.775386 0.240067 2.332585449e-38
3.539926 1.805058 0.240035 2.332549576e-38
3.541857 1.836775 0.239202 9.490763285e-39
3.545200 1.865832 0.240481 7.279491887e-39
3.441333 -1.755874 0.281937 8.853285989e-39
3.438250 -1.733679 0.269062 9.221351043e-39
3.443667 -1.734696 0.271601 9.128798082e-39
3.434454 -1.702243 0.273764 9.129155413e-39
3.440889 -1.706818 0.262262 9.221352444e-39
3.435207 -1.674703 0.269103 9.222069909e-39
3.440500 -1.682195 0.284461 9.130228808e-39
3.430074 -1.643164 0.271138 9.130233012e-39
3.431923 -1.615631 0.271328 9.222071311e-39
3.426630 -1.584044 0.270772 9.314627074e-39
3.420483 -1.554329 0.272371 9.130594547e-39
3.418484 -1.525141 0.270875 9.222428642e-39
3.418324 -1.493019 0.270493 9.775246491e-39
3.458857 -1.494689 0.268300 1.419956333e-38
3.485900 -1.499715 0.269817 1.466054008e-38
3.518867 -1.503976 0.270796 1.438467346e-38
3.545889 -1.501426 0.270250 1.447686909e-38
3.575500 -1.494474 0.268967 1.429247783e-38
3.602400 -1.486205 0.272281 1.373966138e-38
3.622167 -1.481012 0.270350 1.373966138e-38
3.629967 -1.464625 0.269069 1.309429197e-38
3.637600 -1.433597 0.270632 1.235672413e-38
3.641760 -1.403704 0.271487 1.189538725e-38
3.641520 -1.374636 0.271435 1.171135472e-38
3.638520 -1.344353 0.270821 1.143440769e-38
3.634680 -1.313755 0.270035 1.106634404e-38
3.641625 -1.292864 0.272182 1.042061590e-38
3.662682 -1.280546 0.271275 8.391231642e-39
3.681000 -1.269310 0.282456 5.810828802e-39
3.646000 -1.243259 0.260754 5.254060692e-39
3.661889 -1.256221 0.266551 5.808672203e-39
3.682000 -1.252124 0.279728 5.440607149e-39
3.637200 -1.222312 0.258984 7.007218194e-39
3.670273 -1.220769 0.276273 5.072546298e-39
3.695833 -1.219417 0.278611 7.654744202e-39
3.734000 -1.220829 0.272498 9.405743704e-39
3.752235 -1.216177 0.269072 9.037681452e-39
3.637000 -1.204875 0.258944 1.032770140e-38
3.660800 -1.205023 0.264900 7.285605752e-39
3.758375 -1.199874 0.264582 4.611931085e-39
3.629222 -0.403094 0.270201 1.235637240e-38
3.624400 -0.382119 0.269849 1.281770648e-38
3.624800 -0.364698 0.268007 1.235816466e-38
3.299375 0.490108 0.270999 2.111676772e-38
3.294500 0.515085 0.269880 2.120968221e-38
3.293472 0.545790 0.269641 2.139407347e-38
3.290000 0.583083 0.270774 2.176249586e-38
3.291036 0.574192 0.268533 2.167030023e-38
3.289640 0.608537 0.265987 2.185504882e-38
3.291273 0.603148 0.275452 2.185469009e-38
3.288790 0.638940 0.275464 2.213091544e-38
3.292800 0.634712 0.262111 2.213091544e-38
3.289104 0.666144 0.269083 2.222311107e-38
3.291333 0.652574 0.258006 2.222311107e-38
3.289889 0.688818 0.265393 2.240714220e-38
3.291333 0.700015 0.272582 2.240714080e-38
3.288400 0.725066 0.270189 2.259117192e-38
3.291000 0.714223 0.264789 2.249933643e-38
3.287467 0.755318 0.270832 2.286667841e-38
