# This PCD file was generated using the MATLAB® pcwrite function
# from Computer Vision System Toolbox®.
# .PCD v.7 - Point Cloud Data file format
VERSION .7
FIELDS x y z rgb
SIZE 4 4 4 4
TYPE F F F F
COUNT 1 1 1 1
WIDTH 1070
HEIGHT 1
VIEWPOINT 0 0 0 1 0 0 0
POINTS 1070
DATA ascii
1.894750 -0.292302 -0.392409 4.059476172e-39
1.897000 -0.287711 -0.392446 3.507382794e-39
1.897000 -0.282581 -0.392446 3.414827030e-39
1.897750 -0.277622 -0.392458 2.768378621e-39
1.898500 -0.272658 -0.392470 2.491791732e-39
1.899250 -0.267688 -0.392482 1.754226693e-39
1.900000 -0.263998 -0.393780 2.214485976e-39
1.902000 -0.261860 -0.391883 2.123009212e-39
1.903200 -0.256452 -0.392803 2.307400472e-39
1.904000 -0.250692 -0.392559 2.861293117e-39
1.904500 -0.246928 -0.392567 3.321193668e-39
1.903500 -0.242857 -0.392551 4.151311668e-39
1.903000 -0.237602 -0.392542 4.521173187e-39
1.904000 -0.232645 -0.392559 5.259099761e-39
1.904250 -0.227537 -0.392563 5.168341864e-39
1.904667 -0.222888 -0.393000 5.257660628e-39
1.906000 -0.221418 -0.391301 6.733871107e-39
1.906250 -0.217591 -0.392595 5.348415723e-39
1.906000 -0.212381 -0.392592 5.161509132e-39
1.905000 -0.207040 -0.393866 4.427541227e-39
1.906000 -0.207217 -0.391301 4.242789833e-39
1.906500 -0.202140 -0.392599 3.690334920e-39
1.908000 -0.197229 -0.392624 2.676182992e-39
1.909000 -0.192223 -0.392640 2.399597503e-39
1.910000 -0.187211 -0.392656 1.938619354e-39
1.911250 -0.182231 -0.392677 1.938617953e-39
1.912250 -0.177202 -0.392693 2.215204842e-39
1.912500 -0.172054 -0.392696 2.399596102e-39
1.912000 -0.166792 -0.392689 2.030813583e-39
1.913250 -0.161785 -0.392708 2.215204842e-39
1.915000 -0.158139 -0.394037 2.860574251e-39
1.917667 -0.156779 -0.392346 2.307041740e-39
1.919000 -0.152622 -0.393236 2.215202040e-39
1.921000 -0.151157 -0.391530 1.846059387e-39
1.921750 -0.147342 -0.392846 1.662026859e-39
1.924333 -0.142888 -0.393325 1.662386993e-39
1.926000 -0.141358 -0.391606 1.385800103e-39
1.924333 -0.136786 -0.393325 1.662386993e-39
1.926000 -0.138740 -0.391606 1.938973882e-39
1.921750 -0.131676 -0.392846 1.662386993e-39
1.919500 -0.126189 -0.392810 1.570191363e-39
1.918000 -0.120804 -0.392785 1.662386993e-39
1.916500 -0.116730 -0.392761 1.570191363e-39
1.915000 -0.111366 -0.394037 1.477995733e-39
1.916333 -0.113243 -0.392325 1.293604473e-39
1.915000 -0.108767 -0.394037 1.293604473e-39
1.916333 -0.107174 -0.392325 1.385441371e-39
1.916500 -0.102423 -0.392761 1.201052914e-39
1.916500 -0.097220 -0.392761 1.016661654e-39
1.916500 -0.092017 -0.392761 1.016661654e-39
1.916500 -0.086815 -0.392761 1.293248544e-39
1.916500 -0.081612 -0.392761 1.109213214e-39
1.916750 -0.076430 -0.392765 1.201408844e-39
1.915000 -0.069789 -0.394037 1.385800103e-39
1.916667 -0.071653 -0.392330 1.385800103e-39
1.915000 -0.065891 -0.394037 1.477992931e-39
1.917000 -0.066042 -0.391469 1.477995733e-39
1.915000 -0.059395 -0.394037 1.570191363e-39
1.916333 -0.061223 -0.392325 1.570191363e-39
1.914500 -0.056762 -0.392729 1.385800103e-39
1.914250 -0.052849 -0.392725 1.477995733e-39
1.914500 -0.047670 -0.392729 1.293245741e-39
1.914500 -0.042475 -0.392729 1.201410245e-39
1.914500 -0.037279 -0.392729 1.201411646e-39
1.912750 -0.031995 -0.392700 1.017380520e-39
1.911750 -0.026758 -0.392684 1.201051512e-39
1.910000 -0.022791 -0.393951 1.570191363e-39
1.912000 -0.021152 -0.392256 1.569829828e-39
1.911750 -0.016388 -0.392684 1.662384190e-39
1.910000 -0.012433 -0.393951 1.754579820e-39
1.911667 -0.010768 -0.392251 1.846776851e-39
1.911500 -0.006009 -0.392680 1.570192764e-39
1.910000 0.000513 -0.393951 2.030813583e-39
1.911333 -0.001253 -0.392246 1.569835433e-39
1.909500 0.004410 -0.392648 1.292888410e-39
1.911000 0.003076 -0.391377 1.845703457e-39
1.908000 0.007464 -0.393054 1.662032464e-39
1.905000 0.013554 -0.393866 1.569835433e-39
1.907667 0.011780 -0.392187 1.938260622e-39
1.904250 0.017436 -0.392563 1.753867961e-39
1.900000 0.023932 -0.393780 1.753863757e-39
1.902000 0.022192 -0.392098 1.753866559e-39
1.898000 0.027805 -0.392462 1.753865158e-39
1.894250 0.032959 -0.392401 2.583630031e-39
1.895000 0.036798 -0.393694 3.044610983e-39
1.897500 0.038077 -0.392455 2.859869398e-39
1.905000 0.041935 -0.393866 2.029405278e-39
2.116500 0.051142 -0.393027 1.477286676e-39
2.121000 0.054153 -0.393091 1.846423724e-39
2.129000 0.057217 -0.391709 2.123009212e-39
2.130000 0.060224 -0.391722 2.030813583e-39
2.130000 0.063221 -0.391722 2.031166710e-39
2.129000 0.067698 -0.391709 8.668531793e-39
2.129000 0.073686 -0.391709 8.207908172e-39
2.130000 0.078201 -0.391722 8.300818464e-39
2.130000 0.082696 -0.391722 8.024231574e-39
2.130500 0.088704 -0.391729 8.116428605e-39
2.132000 0.093248 -0.391749 8.116430007e-39
2.133000 0.097784 -0.391763 8.300821266e-39
2.134000 0.102325 -0.391776 8.208625637e-39
2.135000 0.105368 -0.391789 8.393019699e-39
2.136000 0.108416 -0.391803 8.393019699e-39
2.136500 0.112950 -0.391810 8.577052226e-39
2.137500 0.119015 -0.391823 8.761447690e-39
2.140000 0.123658 -0.391856 8.577056430e-39
2.143000 0.128342 -0.391897 8.854362186e-39
2.144000 0.132929 -0.391910 8.578132627e-39
2.144500 0.137493 -0.391917 8.578131226e-39
2.145000 0.142058 -0.391924 8.485935596e-39
2.147000 0.145210 -0.391950 8.762522486e-39
2.147000 0.148238 -0.391950 8.762522486e-39
2.149000 0.151402 -0.391977 8.117153077e-39
2.151000 0.154573 -0.392004 8.853640517e-39
2.152000 0.157679 -0.392017 9.406814296e-39
2.153000 0.160790 -0.392031 9.683403988e-39
2.156000 0.164054 -0.392071 1.032877620e-38
2.157000 0.167176 -0.392084 1.032877620e-38
2.160000 0.170459 -0.392125 1.069755872e-38
2.163000 0.173754 -0.392165 1.115853687e-38
2.165000 0.176976 -0.392192 1.161951502e-38
2.166000 0.180122 -0.392205 1.198901781e-38
2.167000 0.183271 -0.392219 1.226560469e-38
2.170500 0.188181 -0.392265 1.300317254e-38
2.174000 0.193109 -0.392312 1.318756380e-38
2.178000 0.198105 -0.392366 1.410952009e-38
2.181000 0.203025 -0.392406 1.512439089e-38
2.185000 0.206513 -0.392460 1.567756467e-38
2.187000 0.209813 -0.392487 1.586195593e-38
2.192000 0.213431 -0.392554 1.512367202e-38
2.195000 0.216856 -0.392594 1.051389053e-38
2.196000 0.220080 -0.392607 8.393388240e-39
2.196000 0.223198 -0.392607 7.931687021e-39
2.193500 0.227596 -0.392574 7.470704668e-39
2.185000 0.234394 -0.392460 8.300466738e-39
2.189000 0.231753 -0.392514 7.655454660e-39
2.182500 0.238744 -0.392426 8.024244186e-39
2.184000 0.243566 -0.392446 9.960716751e-39
1.893000 0.334366 -0.392806 1.917920774e-38
1.897500 0.331903 -0.392454 1.936431787e-38
1.889000 0.339467 -0.392741 6.824629004e-39
1.892000 0.337135 -0.391087 1.871786806e-38
1.889000 0.344144 -0.393592 1.662031063e-39
1.891000 0.343307 -0.391072 1.846423724e-39
1.893500 0.347695 -0.392390 1.846423724e-39
1.896000 0.349532 -0.391148 1.846423724e-39
1.895000 0.351870 -0.393694 2.030813583e-39
1.898500 0.353943 -0.392471 1.939338220e-39
1.902333 0.357814 -0.392103 2.400316369e-39
2.971000 0.357476 -0.393896 2.093272678e-38
1.904500 0.361747 -0.392567 2.217002708e-39
1.906500 0.364791 -0.392599 4.060916707e-39
2.973000 0.362289 -0.393915 2.130150930e-38
1.907500 0.368900 -0.392615 7.103013760e-39
2.975000 0.367110 -0.393935 2.148590336e-38
1.907667 0.373679 -0.393049 4.152393471e-39
2.975000 0.371669 -0.393935 2.148590336e-38
1.909500 0.377137 -0.392649 2.768741558e-39
1.911000 0.378793 -0.391377 3.046045912e-39
2.975000 0.376228 -0.393935 2.157809899e-38
1.912500 0.383048 -0.392696 2.768742959e-39
2.977000 0.381063 -0.393954 2.139370773e-38
1.913500 0.388483 -0.392713 3.599222494e-39
2.979000 0.385906 -0.393974 2.139370773e-38
2.980000 0.390615 -0.393983 2.139370773e-38
1.913500 0.393675 -0.392712 3.875807982e-39
2.982000 0.395471 -0.394003 2.157809899e-38
1.914667 0.398732 -0.393165 4.058758707e-39
2.983000 0.400188 -0.394013 2.167029462e-38
1.917333 0.402883 -0.392341 4.152033337e-39
2.984000 0.404910 -0.394022 2.157809899e-38
1.919000 0.408091 -0.392802 6.734227036e-39
2.984000 0.409485 -0.394022 2.166957576e-38
1.920000 0.413567 -0.394122 7.013687989e-39
1.921000 0.413832 -0.391530 7.751613162e-39
2.984000 0.414061 -0.394022 2.148518450e-38
1.920000 0.418783 -0.394122 6.645279616e-39
1.921000 0.419051 -0.391530 5.910966991e-39
2.985000 0.418790 -0.394032 2.185396702e-38
1.921333 0.423926 -0.393274 7.011203487e-39
2.985000 0.423367 -0.394032 2.074761946e-38
1.923333 0.427956 -0.392436 6.825015763e-39
2.987000 0.428258 -0.394051 1.770516367e-38
1.924500 0.433072 -0.392891 7.376010523e-39
2.991000 0.433474 -0.394090 1.825833745e-38
1.924500 0.438305 -0.394199 6.458354809e-39
1.926000 0.438727 -0.391606 6.460871541e-39
2.994000 0.438544 -0.394119 1.954979514e-38
1.925000 0.443679 -0.394208 7.937075014e-39
1.927000 0.444250 -0.391621 6.279008224e-39
3.004000 0.444761 -0.394216 2.010296891e-38
1.925000 0.448913 -0.394208 8.201095059e-39
1.926000 0.449202 -0.391606 7.836636946e-39
3.002000 0.449045 -0.389588 1.798246943e-38
1.926500 0.453277 -0.392923 9.301331554e-39
3.005000 0.454152 -0.389612 1.991857765e-38
1.928500 0.457796 -0.392955 8.386919847e-39
3.015000 0.460445 -0.389690 2.065614269e-38
1.929500 0.463341 -0.392972 8.488819468e-39
1.930000 0.468742 -0.392980 9.677657263e-39
1.929667 0.473456 -0.393412 9.675856595e-39
1.931000 0.475615 -0.391682 6.452603880e-39
1.930000 0.477934 -0.394293 5.908059297e-39
1.931000 0.478243 -0.391682 9.686636784e-39
1.931750 0.482419 -0.393008 7.841292060e-39
1.931750 0.487677 -0.393008 7.371330186e-39
1.931250 0.492777 -0.393000 6.271452423e-39
3.004000 0.495500 -0.389604 1.908773238e-38
1.932000 0.498277 -0.393012 5.625006816e-39
3.003000 0.499928 -0.389596 2.203799254e-38
1.932750 0.503781 -0.393024 4.427539825e-39
1.932500 0.508961 -0.393020 3.875446447e-39
1.932500 0.512907 -0.393020 3.691416722e-39
1.933500 0.517189 -0.393037 3.506305195e-39
1.933000 0.522285 -0.393028 3.229358172e-39
1.933000 0.527549 -0.393028 3.137881408e-39
1.933667 0.532605 -0.393478 2.307044542e-39
1.936000 0.535170 -0.391758 2.491793133e-39
1.935000 0.538776 -0.394379 2.214850314e-39
1.936000 0.539126 -0.391758 2.215206244e-39
1.935000 0.544047 -0.393061 2.215207645e-39
1.935000 0.549318 -0.394379 2.122654684e-39
1.936000 0.548357 -0.391758 2.123010614e-39
1.934500 0.554408 -0.394370 2.307045944e-39
1.936000 0.552313 -0.391758 2.030459054e-39
1.933333 0.558813 -0.393472 2.675469731e-39
1.936000 0.556269 -0.391758 2.860219723e-39
1.932667 0.562078 -0.392584 2.399242975e-39
1.934000 0.566958 -0.393483 2.399241573e-39
1.936000 0.569456 -0.391758 2.582916770e-39
1.934500 0.572851 -0.393052 2.675472533e-39
1.933500 0.577743 -0.393036 2.491440006e-39
1.933250 0.582913 -0.393032 2.031899589e-39
1.933500 0.588274 -0.393036 2.031538054e-39
1.934750 0.594025 -0.393057 1.939341023e-39
1.935000 0.598076 -0.393061 1.847502724e-39
1.933833 0.602884 -0.393042 2.123370747e-39
1.932500 0.608936 -0.393020 1.938620755e-39
1.932667 0.613826 -0.393461 2.123010614e-39
1.930000 0.619754 -0.394293 2.399597503e-39
1.932250 0.618041 -0.392358 2.215206244e-39
1.929000 0.623720 -0.393401 2.583988763e-39
1.931000 0.622791 -0.391682 2.307401873e-39
1.929500 0.628739 -0.392972 2.768021290e-39
1.930000 0.634637 -0.393418 3.136446479e-39
1.931000 0.633303 -0.391682 2.399241573e-39
1.929000 0.639029 -0.392963 3.228646312e-39
1.928500 0.644065 -0.392955 3.597786163e-39
1.928000 0.649097 -0.392947 3.690700659e-39
1.925000 0.653043 -0.394208 3.598503628e-39
1.926000 0.653476 -0.391606 3.875450651e-39
1.923750 0.657731 -0.392879 3.046045912e-39
1.924750 0.663401 -0.392895 2.400316369e-39
1.925000 0.668309 -0.393335 2.583987362e-39
1.926000 0.670499 -0.391606 2.399597503e-39
1.924333 0.674117 -0.393324 2.676182992e-39
1.926000 0.673118 -0.391606 2.307401873e-39
1.924000 0.678761 -0.392882 2.768021290e-39
1.923000 0.683536 -0.392866 2.952774085e-39
1.923500 0.688993 -0.392874 3.136809415e-39
1.922000 0.693527 -0.392850 3.413394903e-39
1.919333 0.697941 -0.393241 3.874370250e-39
1.921000 0.696979 -0.391530 3.874371651e-39
1.919500 0.702798 -0.392810 3.690336321e-39
1.919250 0.707893 -0.392806 3.597783360e-39
1.918000 0.712508 -0.392785 2.952775486e-39
1.915000 0.720171 -0.394037 3.044613785e-39
1.916800 0.717919 -0.392506 2.768026896e-39
1.915000 0.724068 -0.394037 2.307403275e-39
1.916000 0.723255 -0.391453 2.768024093e-39
1.914500 0.729020 -0.394028 2.307406077e-39
1.916000 0.727156 -0.391453 2.307401873e-39
1.913500 0.733721 -0.394011 2.214490180e-39
1.916000 0.732357 -0.391453 2.215206244e-39
1.913200 0.737984 -0.392448 2.491797337e-39
1.911000 0.742850 -0.392673 2.675471132e-39
1.908333 0.747977 -0.392629 2.952415353e-39
1.907250 0.753890 -0.392612 3.504868864e-39
1.900000 0.759184 -0.393780 2.400676503e-39
1.903000 0.759017 -0.392114 3.228284777e-39
1.906500 0.757381 -0.392599 3.320837738e-39
1.898400 0.762977 -0.392725 2.215213250e-39
1.898333 0.767736 -0.392038 2.123733684e-39
1.900000 0.772038 -0.393780 2.032259723e-39
1.902000 0.773091 -0.391240 2.124455352e-39
1.909000 0.779365 -0.393934 3.138604478e-39
1.911000 0.780422 -0.391377 3.230800108e-39
3.566000 1.677690 -0.394021 2.240785686e-38
3.568000 1.684417 -0.394037 2.249933362e-38
3.569000 1.690613 -0.394045 2.268336475e-38
3.431000 -1.576667 -0.387558 1.109933481e-39
3.428000 -1.569610 -0.387540 1.386523173e-39
3.425000 -1.562564 -0.387522 1.754226693e-39
3.420000 -1.554433 -0.387492 2.123009212e-39
3.418000 -1.547958 -0.387480 1.846422323e-39
3.419000 -1.543124 -0.387486 2.123009212e-39
3.421500 -1.536406 -0.387501 4.795963612e-39
3.425000 -1.530216 -0.387522 1.032770140e-38
3.427000 -1.525898 -0.387534 1.005183338e-38
3.429000 -1.521573 -0.387546 9.867798051e-39
3.430000 -1.516708 -0.387552 9.776322688e-39
3.427000 -1.509713 -0.387534 9.868518318e-39
3.508000 -1.513932 -0.388021 1.549137694e-38
3.517000 -1.513036 -0.388075 1.558321664e-38
3.529000 -1.513650 -0.388147 1.576760790e-38
3.537000 -1.512168 -0.388195 1.604419760e-38
3.483000 -1.506473 -0.387870 1.290989791e-38
3.541000 -1.508614 -0.388219 1.567649408e-38
3.553000 -1.509117 -0.388291 1.549210282e-38
3.564000 -1.509068 -0.388357 1.539990719e-38
3.569000 -1.505947 -0.388387 1.558322225e-38
3.579000 -1.505324 -0.388447 1.595200477e-38
3.422000 -1.501671 -0.387504 1.014510521e-38
3.588000 -1.504163 -0.388501 1.567541788e-38
3.596000 -1.502469 -0.388550 1.558322225e-38
3.420000 -1.495230 -0.387492 1.005218931e-38
3.452000 -1.495789 -0.387684 8.207920783e-39
3.601000 -1.499252 -0.388580 1.558321945e-38
3.612000 -1.498992 -0.388646 1.576761071e-38
3.620000 -1.497209 -0.388694 1.539882819e-38
3.422000 -1.490900 -0.387504 1.014438494e-38
3.438000 -1.493896 -0.387600 9.683050861e-39
3.623000 -1.492934 -0.388712 1.567541508e-38
3.629000 -1.490121 -0.388748 1.558321945e-38
3.635000 -1.487284 -0.388784 1.567541508e-38
3.638000 -1.482965 -0.388802 1.558429845e-38
3.645000 -1.480575 -0.388844 1.604527660e-38
3.650000 -1.477193 -0.388874 1.595308097e-38
3.651000 -1.471867 -0.388880 1.503184073e-38
3.654000 -1.467496 -0.388898 1.438575246e-38
3.656000 -1.462636 -0.388910 1.438575246e-38
3.657000 -1.457294 -0.388916 1.364819022e-38
3.660000 -1.452895 -0.388934 1.429248063e-38
3.663000 -1.448485 -0.388952 1.392477431e-38
3.663000 -1.442654 -0.388952 1.346379616e-38
3.664000 -1.437291 -0.388958 1.337052153e-38
3.665000 -1.431924 -0.388964 1.355491279e-38
3.664000 -1.425624 -0.388958 1.318648620e-38
3.666000 -1.420717 -0.388970 1.309429057e-38
3.667000 -1.415341 -0.388976 1.327868183e-38
3.668000 -1.409961 -0.388982 1.355526872e-38
3.667000 -1.403663 -0.388976 1.290954338e-38
3.664000 -1.396458 -0.388958 1.300173901e-38
3.662000 -1.389717 -0.388946 1.300173901e-38
3.660000 -1.382984 -0.388934 1.300173901e-38
3.658000 -1.376258 -0.388922 1.309393464e-38
3.657000 -1.369988 -0.388916 1.300173901e-38
3.658000 -1.364614 -0.388922 1.309393464e-38
3.658000 -1.358791 -0.388922 1.263331242e-38
3.658000 -1.352969 -0.388922 1.272550805e-38
3.660000 -1.348028 -0.388934 1.290989931e-38
3.659000 -1.341764 -0.388928 1.281734775e-38
3.657000 -1.335066 -0.388916 1.263295649e-38
3.656000 -1.328810 -0.388910 1.244856523e-38
3.654000 -1.322125 -0.388898 1.254076086e-38
3.653000 -1.315879 -0.388892 1.254076086e-38
3.654000 -1.310495 -0.388898 1.226417397e-38
3.655000 -1.305108 -0.388904 1.226417397e-38
3.655000 -1.299292 -0.388904 1.235636960e-38
3.655000 -1.293475 -0.388904 1.263295649e-38
3.653000 -1.286814 -0.388892 1.263331242e-38
3.650000 -1.279740 -0.388874 1.244892116e-38
3.648000 -1.273096 -0.388862 1.235636960e-38
3.650000 -1.268125 -0.388874 1.217197834e-38
3.650000 -1.262318 -0.388874 1.217197834e-38
3.649000 -1.256097 -0.388868 1.244856523e-38
3.649000 -1.250292 -0.388868 1.226417397e-38
3.649000 -1.244486 -0.388868 1.217198114e-38
3.648000 -1.238273 -0.388862 1.198758988e-38
3.648000 -1.232470 -0.388862 1.235637240e-38
3.645000 -1.225455 -0.388844 1.189539425e-38
3.642000 -1.218451 -0.388826 1.226417677e-38
3.642000 -1.212659 -0.388826 1.180319862e-38
3.641000 -1.206468 -0.388820 1.189539145e-38
3.641000 -1.200677 -0.388820 1.226417397e-38
3.643000 -1.195675 -0.388832 1.244856523e-38
3.642000 -1.189488 -0.388826 1.208086171e-38
3.641000 -1.183305 -0.388820 1.208086171e-38
3.640000 -1.177125 -0.388814 1.226525297e-38
3.640000 -1.171336 -0.388814 1.208086171e-38
3.639000 -1.165162 -0.388808 1.208086171e-38
3.639000 -1.159375 -0.388808 1.226417397e-38
3.639000 -1.153588 -0.388808 1.217197834e-38
3.638000 -1.147421 -0.388802 1.217197834e-38
3.637000 -1.141258 -0.388796 1.217197834e-38
3.637000 -1.135475 -0.388796 1.198758708e-38
3.637000 -1.129691 -0.388796 1.189539145e-38
3.637000 -1.123908 -0.388796 1.180319582e-38
3.636000 -1.117754 -0.388790 1.217197834e-38
3.635000 -1.111604 -0.388784 1.235636960e-38
3.633000 -1.105091 -0.388772 1.207978271e-38
3.632000 -1.098950 -0.388766 1.207978271e-38
3.630000 -1.092450 -0.388754 1.217197834e-38
3.629000 -1.086319 -0.388748 1.226417397e-38
3.629000 -1.080550 -0.388748 1.226452990e-38
3.630000 -1.075139 -0.388754 1.226452990e-38
3.632000 -1.070080 -0.388766 1.198794161e-38
3.636000 -1.065720 -0.388790 1.198794161e-38
3.639000 -1.060994 -0.388808 1.208013724e-38
3.654000 -1.060458 -0.388898 1.235672553e-38
1.870500 -0.866478 -0.386985 5.556835047e-40
1.868500 -0.861377 -0.386960 7.400747645e-40
1.868500 -0.856352 -0.386960 7.404320956e-40
1.872500 -0.855211 -0.387009 8.326263241e-40
1.876000 -0.854984 -0.387052 8.326263241e-40
1.874000 -0.851151 -0.388290 1.846778253e-39
1.876000 -0.852458 -0.385790 1.201408844e-39
1.872500 -0.847651 -0.387009 1.846778253e-39
1.869000 -0.840344 -0.386966 1.939334016e-39
1.870500 -0.843832 -0.386984 2.031529646e-39
1.867667 -0.836132 -0.387368 1.570191363e-39
1.868250 -0.832321 -0.386329 1.109213214e-39
1.870000 -0.830931 -0.388236 1.293604473e-39
1.869000 -0.826520 -0.385709 1.938973882e-39
1.870000 -0.827158 -0.388236 2.307756402e-39
1.868750 -0.821334 -0.386963 2.584341890e-39
1.871333 -0.816676 -0.386995 1.938973882e-39
1.872000 -0.811220 -0.387424 1.754579820e-39
1.869000 -0.806412 -0.386966 2.123722473e-39
1.865500 -0.801726 -0.386922 2.400668095e-39
1.862333 -0.796841 -0.386466 2.862006378e-39
1.861000 -0.791434 -0.386866 1.756018954e-39
1.862500 -0.788606 -0.386884 1.202845175e-39
1.866500 -0.788548 -0.386934 1.571627694e-39
1.870000 -0.786912 -0.386978 2.401745694e-39
1.868333 -0.781293 -0.386539 2.125157403e-39
1.864000 -0.774499 -0.386904 1.295396734e-39
1.867000 -0.778814 -0.388196 1.848570513e-39
1.861000 -0.770196 -0.386866 1.387952498e-39
1.859000 -0.766502 -0.385594 1.571983624e-39
1.860000 -0.767100 -0.388102 2.033321907e-39
1.858250 -0.762313 -0.386832 2.401385560e-39
1.859000 -0.757769 -0.386841 1.386876301e-39
1.858000 -0.752192 -0.386828 1.754581221e-39
1.855500 -0.746990 -0.386797 1.570191363e-39
1.852500 -0.741511 -0.386760 1.201408844e-39
1.851500 -0.737207 -0.386747 9.248219540e-40
1.850500 -0.731668 -0.386735 1.201768977e-39
1.854000 -0.728712 -0.385536 1.385800103e-39
1.855667 -0.728006 -0.387214 1.202126308e-39
1.862750 -0.727461 -0.386888 1.386518969e-39
1.855000 -0.405899 -0.386791 1.235744439e-38
1.854000 -0.401424 -0.387193 1.244927989e-38
1.855000 -0.403411 -0.385547 1.254111679e-38
1.855750 -0.397435 -0.386800 1.226560750e-38
1.858000 -0.393180 -0.386829 1.244999876e-38
1.861000 -0.390397 -0.386866 1.226560750e-38
1.862750 -0.387201 -0.386888 1.217377200e-38
1.864000 -0.383840 -0.385651 1.309536817e-38
1.866400 -0.381580 -0.387184 3.598498023e-39
1.868667 -0.376925 -0.386543 1.108857284e-39
1.870000 -0.375657 -0.388236 1.477639803e-39
1.869000 -0.372838 -0.385709 1.477639803e-39
1.870000 -0.371465 -0.387398 1.846422323e-39
1.871500 -0.367302 -0.386997 1.569835433e-39
1.874000 -0.364266 -0.387028 1.938259220e-39
1.875750 -0.360996 -0.387050 2.215564976e-39
1.877000 -0.356306 -0.387066 2.214846110e-39
1.878500 -0.351679 -0.387085 2.492510598e-39
1.881500 -0.347464 -0.387122 3.046404645e-39
1.883000 -0.344079 -0.387141 3.230794503e-39
1.885500 -0.340962 -0.387172 3.414827030e-39
1.886750 -0.336216 -0.387187 3.045324243e-39
1.888000 -0.331461 -0.387203 3.044964110e-39
1.888000 -0.326363 -0.387203 2.768375819e-39
1.888500 -0.321397 -0.387209 2.491431598e-39
1.889250 -0.316492 -0.387219 2.583987362e-39
1.890000 -0.312857 -0.387228 2.676182992e-39
1.891000 -0.310559 -0.387241 2.860575653e-39
1.891500 -0.306853 -0.387247 3.320833535e-39
1.891750 -0.301805 -0.387250 4.243508699e-39
1.893000 -0.296998 -0.387266 3.967640676e-39
1.894667 -0.292709 -0.386860 4.153471069e-39
1.896000 -0.291321 -0.388585 5.069672235e-39
1.897500 -0.287830 -0.387322 4.243867432e-39
1.898500 -0.282930 -0.387334 3.229716904e-39
1.899000 -0.277909 -0.387340 3.137519873e-39
1.899000 -0.272771 -0.387340 2.399596102e-39
1.899667 -0.268209 -0.386921 1.938617953e-39
1.901500 -0.265612 -0.388658 1.938617953e-39
1.902800 -0.261518 -0.387131 2.215204842e-39
1.903500 -0.255743 -0.387397 2.492151866e-39
1.904000 -0.250692 -0.387403 3.230435771e-39
1.905000 -0.246171 -0.387845 4.428978959e-39
1.904333 -0.242596 -0.386978 4.060195038e-39
1.904500 -0.237901 -0.387410 5.350933856e-39
1.904500 -0.232743 -0.387410 5.535325116e-39
1.904750 -0.227633 -0.387412 5.351293990e-39
1.906250 -0.222756 -0.387431 4.982512872e-39
1.906500 -0.217637 -0.387435 4.153835407e-39
1.906500 -0.212472 -0.387435 4.060919509e-39
1.907000 -0.207394 -0.387440 3.598858156e-39
1.907500 -0.202314 -0.387447 2.953130015e-39
1.909250 -0.197441 -0.387469 2.491432999e-39
1.910000 -0.193685 -0.386183 2.215204842e-39
1.911000 -0.192124 -0.387922 2.307401873e-39
1.910000 -0.185917 -0.386183 1.938617953e-39
1.911000 -0.187806 -0.387922 1.938617953e-39
1.909500 -0.181953 -0.387472 1.846422323e-39
1.910000 -0.178149 -0.386183 2.860574251e-39
1.911333 -0.176628 -0.387927 2.307400472e-39
1.912500 -0.172054 -0.387509 2.491791732e-39
1.912750 -0.166902 -0.387512 2.676182992e-39
1.914000 -0.163192 -0.387528 2.307400472e-39
1.916000 -0.160881 -0.387553 2.215204842e-39
1.918750 -0.157365 -0.387587 2.399596102e-39
1.920000 -0.153629 -0.387603 2.399953433e-39
1.921000 -0.151157 -0.387615 1.754584024e-39
1.922500 -0.147441 -0.387634 1.569832631e-39
1.924333 -0.142888 -0.387221 1.570191363e-39
1.926000 -0.141358 -0.388987 1.662386993e-39
1.924667 -0.136827 -0.387225 1.662386993e-39
1.926000 -0.138740 -0.388987 1.570191363e-39
1.922500 -0.131767 -0.387634 1.846776851e-39
1.919667 -0.125774 -0.387164 1.662386993e-39
1.921000 -0.127670 -0.388920 1.846775450e-39
1.919250 -0.120946 -0.387594 1.570191363e-39
1.918000 -0.116897 -0.387578 1.293604473e-39
1.917000 -0.112883 -0.387566 1.385801505e-39
1.916750 -0.107651 -0.387562 1.385444173e-39
1.917750 -0.102549 -0.387575 1.201052914e-39
1.917000 -0.097269 -0.387565 1.108857284e-39
1.916750 -0.092041 -0.387562 1.201052914e-39
1.917000 -0.086860 -0.387566 1.109214615e-39
1.916500 -0.081612 -0.387559 1.109213214e-39
1.918250 -0.076554 -0.387581 1.201408844e-39
1.918250 -0.071345 -0.387581 1.201408844e-39
1.917500 -0.066079 -0.387572 1.385800103e-39
1.917000 -0.060837 -0.387565 1.385800103e-39
1.916000 -0.056865 -0.387553 1.477995733e-39
1.915000 -0.051599 -0.388839 1.109213214e-39
1.916000 -0.053398 -0.387119 1.477995733e-39
1.915000 -0.049000 -0.386241 1.293248544e-39
1.916000 -0.047330 -0.387986 1.569834032e-39
1.915000 -0.041205 -0.386241 1.293248544e-39
1.916000 -0.042996 -0.387986 1.293248544e-39
1.915000 -0.036874 -0.387107 1.201052914e-39
1.916000 -0.038662 -0.388853 1.385444173e-39
1.914500 -0.032084 -0.387534 1.108498552e-39
1.914000 -0.026865 -0.387528 1.292528276e-39
1.914000 -0.021672 -0.387528 1.568753631e-39
1.913750 -0.016468 -0.387525 1.662025458e-39
1.913000 -0.011248 -0.387515 1.477992931e-39
1.912500 -0.006042 -0.387509 1.754582623e-39
1.912750 -0.000862 -0.387512 1.661669528e-39
1.912500 0.004334 -0.387509 1.569835433e-39
1.911500 0.008247 -0.387496 1.568756433e-39
1.909500 0.013469 -0.387471 1.293249945e-39
1.911500 0.010839 -0.387496 1.569836835e-39
1.907000 0.017392 -0.387440 1.477639803e-39
1.902750 0.022612 -0.387388 1.292889811e-39
1.898667 0.028228 -0.386908 1.662032464e-39
1.901000 0.026494 -0.388652 1.477641205e-39
1.896000 0.032951 -0.387303 1.846423724e-39
1.899000 0.036789 -0.387340 2.215206244e-39
2.117000 0.051146 -0.387090 1.569835433e-39
2.121500 0.054157 -0.387138 1.754226693e-39
2.126750 0.058689 -0.387194 2.030814984e-39
2.127000 0.063177 -0.387197 1.938975284e-39
2.126250 0.067651 -0.387189 7.931325486e-39
2.127000 0.073645 -0.387197 8.024235778e-39
2.128500 0.078166 -0.387213 8.024231574e-39
2.128000 0.082643 -0.387207 8.208624235e-39
2.128667 0.088149 -0.386715 8.300821266e-39
2.130000 0.090186 -0.388726 8.116432809e-39
2.130500 0.093199 -0.387234 8.300821266e-39
2.131250 0.097721 -0.387242 8.485212526e-39
2.132667 0.103274 -0.386756 8.393019699e-39
2.135000 0.105368 -0.388784 8.669606588e-39
2.134000 0.108332 -0.385769 8.577053627e-39
2.135000 0.108374 -0.388784 8.669606588e-39
2.134000 0.111335 -0.385769 8.577053627e-39
2.135667 0.113413 -0.387790 8.761443486e-39
2.136250 0.118954 -0.387295 8.945837548e-39
2.138500 0.123581 -0.387319 8.761447690e-39
2.140500 0.128207 -0.387340 8.761447690e-39
2.142000 0.132815 -0.387356 8.485938399e-39
2.143000 0.137403 -0.387366 8.670328257e-39
2.144500 0.143539 -0.387382 9.039110777e-39
2.146000 0.148172 -0.387398 8.670328257e-39
2.148250 0.152866 -0.387422 8.854000651e-39
2.150500 0.157572 -0.387447 9.499011327e-39
2.153750 0.162366 -0.387481 9.867795248e-39
2.157500 0.168739 -0.387521 1.051316746e-38
2.162000 0.173673 -0.387568 1.088194998e-38
2.163750 0.178403 -0.387587 1.152767952e-38
2.166000 0.183185 -0.387611 1.208121343e-38
2.168667 0.187506 -0.387128 1.254255172e-38
2.170000 0.189671 -0.389189 1.309536817e-38
2.172500 0.192971 -0.387681 1.346450802e-38
2.176500 0.197963 -0.387723 1.429427009e-38
2.180500 0.202976 -0.387765 1.521658652e-38
2.184500 0.206463 -0.387807 1.567756467e-38
2.186500 0.209763 -0.387829 1.576976030e-38
2.191000 0.213327 -0.387877 1.613854282e-38
2.194500 0.218362 -0.387914 9.775963956e-39
2.195000 0.223089 -0.389478 7.563983501e-39
2.196000 0.223198 -0.386371 8.116078281e-39
2.193250 0.227568 -0.387901 7.286314809e-39
2.185000 0.234394 -0.389362 8.392665170e-39
2.187500 0.233132 -0.387841 8.208271108e-39
2.190000 0.231867 -0.386313 7.562901699e-39
2.182500 0.238744 -0.387786 8.392669374e-39
2.183500 0.243506 -0.387797 1.042097603e-38
1.895000 0.333939 -0.386010 1.945651490e-38
1.898333 0.332933 -0.387760 1.936467800e-38
1.905000 0.330901 -0.388705 1.964162503e-38
1.907000 0.331318 -0.386148 1.954942940e-38
1.890000 0.340535 -0.385952 9.399069320e-41
1.892500 0.337243 -0.387260 1.798030442e-38
1.891333 0.342529 -0.387671 1.292533881e-39
1.895000 0.346747 -0.387291 1.477285275e-39
1.898000 0.349978 -0.387328 1.569479503e-39
1.900000 0.352996 -0.387353 1.938260622e-39
1.903500 0.357651 -0.387397 2.491791732e-39
2.972000 0.357605 -0.387076 2.139370493e-38
1.906750 0.363558 -0.387437 3.415545896e-39
2.974000 0.362420 -0.387089 2.157809759e-38
1.908500 0.369136 -0.387459 6.734588572e-39
2.977000 0.367375 -0.387110 2.167029462e-38
1.909000 0.373135 -0.387465 4.245307966e-39
2.978500 0.372140 -0.387120 2.176249025e-38
1.910000 0.375962 -0.387478 3.231154637e-39
1.912000 0.379035 -0.387503 2.678340991e-39
2.979000 0.376774 -0.389407 2.157809899e-38
2.980000 0.376910 -0.384847 2.185468588e-38
1.913500 0.383292 -0.387522 2.677620724e-39
2.981500 0.381686 -0.387141 2.176249025e-38
1.914500 0.388731 -0.387534 3.691413920e-39
2.983500 0.386537 -0.387155 2.185468588e-38
1.915000 0.392753 -0.387540 4.243868833e-39
1.916000 0.395605 -0.386252 4.058398573e-39
2.984500 0.391254 -0.387162 2.185468588e-38
1.917000 0.397592 -0.387999 4.428260093e-39
2.985000 0.397428 -0.387929 2.185396702e-38
2.986000 0.400625 -0.384883 2.194616265e-38
1.919000 0.402879 -0.387590 4.427545430e-39
2.985000 0.405057 -0.389454 2.194616265e-38
2.986000 0.405205 -0.384883 2.203835828e-38
1.920000 0.407048 -0.388907 7.744067170e-39
1.921667 0.409222 -0.387188 6.544447784e-39
2.985000 0.409635 -0.387166 2.185396702e-38
1.923000 0.414362 -0.387640 8.940095027e-39
2.985000 0.414212 -0.387166 2.185396702e-38
1.922000 0.418014 -0.387628 8.297606688e-39
2.986500 0.419019 -0.387176 2.203835828e-38
1.923500 0.422338 -0.387646 6.829673679e-39
2.987000 0.423677 -0.387180 2.194616124e-38
1.924500 0.426532 -0.387659 5.908081718e-39
1.926000 0.429561 -0.387678 6.736763387e-39
2.989000 0.428572 -0.387193 2.203835687e-38
1.926500 0.433628 -0.387684 6.550570057e-39
2.991500 0.433553 -0.387210 2.056322680e-38
1.927000 0.439009 -0.387690 6.828935195e-39
2.993000 0.438383 -0.387221 1.899590109e-38
1.928000 0.443224 -0.387703 5.264138831e-39
2.995000 0.443300 -0.384937 1.844272591e-38
2.997000 0.443625 -0.389549 1.623003359e-38
1.928000 0.447158 -0.387703 4.433692927e-39
2.998000 0.448389 -0.384955 1.447831663e-38
1.928750 0.452621 -0.387712 5.997776030e-39
3.001000 0.453488 -0.384973 1.401733567e-38
1.930000 0.457799 -0.387290 6.092810690e-39
1.931000 0.459846 -0.389054 9.135625208e-39
3.007000 0.459102 -0.385009 1.346416190e-38
1.930000 0.463927 -0.387290 5.357067340e-39
1.931000 0.462474 -0.389054 5.265215028e-39
1.930000 0.468742 -0.387727 5.719754211e-39
1.931000 0.473863 -0.387302 6.641678279e-39
1.932000 0.477675 -0.388191 6.181780531e-39
1.932000 0.482496 -0.387752 4.891057127e-39
1.931750 0.487677 -0.387750 5.623939027e-39
1.932000 0.493016 -0.387752 4.797762880e-39
3.002000 0.495135 -0.384979 2.166921002e-38
1.933000 0.498598 -0.387765 4.152394872e-39
3.000000 0.499375 -0.384967 2.148481876e-38
1.933250 0.503944 -0.387768 4.056965045e-39
2.979000 0.504633 -0.384841 9.868888261e-39
2.981000 0.505010 -0.389423 8.393758183e-39
2.992000 0.502489 -0.384919 2.259116632e-38
2.996000 0.503235 -0.389541 2.259152645e-38
1.933250 0.509208 -0.387768 3.781094219e-39
2.972500 0.507964 -0.387079 5.167271272e-39
1.933000 0.513074 -0.387765 3.780373952e-39
1.934000 0.517357 -0.387777 3.503068196e-39
1.934000 0.522624 -0.387777 3.228637905e-39
1.934750 0.528149 -0.387787 2.860932984e-39
1.936500 0.534025 -0.387809 2.030813583e-39
1.936667 0.538919 -0.387371 2.215206244e-39
1.936333 0.542320 -0.388246 2.123010614e-39
1.936000 0.547038 -0.387802 2.030814984e-39
1.936750 0.552583 -0.387812 2.122653283e-39
1.936750 0.557860 -0.387812 2.214851715e-39
1.935000 0.563814 -0.387790 2.214853116e-39
1.936000 0.561544 -0.387802 2.122657486e-39
1.935000 0.567767 -0.386472 2.399242975e-39
1.936000 0.568137 -0.389121 2.307048746e-39
1.934667 0.573352 -0.387347 2.583632833e-39
1.936000 0.572093 -0.389121 2.491440006e-39
1.935000 0.578309 -0.387790 2.491794534e-39
1.935000 0.583141 -0.387351 2.124091015e-39
1.936000 0.585280 -0.389121 2.032256920e-39
1.935000 0.588851 -0.387790 2.400317771e-39
1.934750 0.594025 -0.387787 2.399597503e-39
1.935000 0.598076 -0.386472 2.399597503e-39
1.936000 0.598467 -0.389121 2.952771282e-39
1.934167 0.603016 -0.387780 2.399597503e-39
1.933000 0.608697 -0.387326 2.399596102e-39
1.934333 0.612743 -0.388221 2.215204842e-39
1.933167 0.618414 -0.387767 2.214848912e-39
1.931250 0.624207 -0.387743 2.399238771e-39
1.931000 0.629361 -0.387740 2.307401873e-39
1.930000 0.635512 -0.386414 2.399597503e-39
1.931000 0.633303 -0.387740 2.491435802e-39
1.929250 0.639135 -0.387718 2.583991566e-39
1.931000 0.635931 -0.389054 2.675828463e-39
1.928500 0.644065 -0.387709 3.044610983e-39
1.928000 0.649097 -0.387703 3.229362376e-39
1.925000 0.654351 -0.386357 3.138604478e-39
1.926333 0.653184 -0.388118 3.414831234e-39
1.924750 0.658168 -0.387662 3.782894888e-39
1.924750 0.663401 -0.387662 3.413393502e-39
1.925000 0.667437 -0.386357 2.768024093e-39
1.926000 0.669626 -0.388114 3.044610983e-39
1.927000 0.673565 -0.387690 2.675829864e-39
1.925000 0.680522 -0.387665 2.491440006e-39
1.926500 0.677271 -0.387684 2.307047345e-39
1.924000 0.683992 -0.387653 2.583635636e-39
1.924000 0.688787 -0.387217 2.768385628e-39
1.924333 0.692427 -0.388093 2.860581258e-39
1.922500 0.697675 -0.387634 3.229362376e-39
1.920000 0.704337 -0.387603 4.059120242e-39
1.921000 0.702198 -0.387615 4.243510101e-39
1.919500 0.708011 -0.387597 3.966568682e-39
1.918250 0.712628 -0.387581 4.058767115e-39
1.917500 0.717476 -0.387571 3.597790367e-39
1.917000 0.722440 -0.387565 3.136810816e-39
1.916750 0.727522 -0.387562 2.676185794e-39
1.916000 0.732357 -0.387553 2.768382825e-39
1.914600 0.738681 -0.387275 2.952056620e-39
1.916000 0.736257 -0.388853 2.583632833e-39
1.909000 0.744433 -0.386172 8.942969090e-39
1.911667 0.742752 -0.387930 4.424309832e-39
1.907800 0.748224 -0.387709 8.115722351e-39
1.905000 0.754030 -0.386125 1.530015295e-38
1.906333 0.752991 -0.387863 9.860610791e-39
1.903000 0.758673 -0.387133 7.097629971e-39
1.906000 0.757124 -0.388719 1.069360285e-38
1.900000 0.764325 -0.387353 2.583272700e-39
1.901000 0.762274 -0.387365 2.582206311e-39
1.900000 0.766896 -0.387353 2.491437203e-39
1.902000 0.770516 -0.387378 2.492520407e-39
1.904000 0.774144 -0.387403 2.770184895e-39
1.909000 0.779365 -0.386172 2.862736455e-39
1.911000 0.780422 -0.388786 2.678345195e-39
3.564000 1.676618 -0.388357 2.240785686e-38
3.566000 1.683342 -0.388369 2.259081319e-38
3.568000 1.690073 -0.388381 2.286631968e-38
3.430000 -1.576114 -0.382151 1.293604473e-39
3.430000 -1.570713 -0.382151 1.569835433e-39
3.428000 -1.564213 -0.382143 1.937899087e-39
3.424000 -1.556625 -0.382126 2.030096118e-39
3.422000 -1.550143 -0.382118 2.030813583e-39
3.422000 -1.544757 -0.382118 1.937899087e-39
3.421000 -1.538829 -0.382114 2.122290346e-39
3.423000 -1.531831 -0.382122 6.732071839e-39
3.426000 -1.525361 -0.382135 9.774527625e-39
3.426000 -1.519968 -0.382135 9.498659601e-39
3.427000 -1.515108 -0.382139 9.590855231e-39
3.506000 -1.512896 -0.382468 1.558357257e-38
3.514000 -1.511486 -0.382501 1.567505214e-38
3.526000 -1.512106 -0.382551 1.558321664e-38
3.536000 -1.511656 -0.382592 1.567541508e-38
3.425000 -1.508651 -0.382130 9.959637751e-39
3.539000 -1.507592 -0.382605 1.567649408e-38
3.551000 -1.508098 -0.382655 1.558429845e-38
3.562000 -1.508054 -0.382701 1.558429845e-38
3.566000 -1.504431 -0.382717 1.567541508e-38
3.577000 -1.504317 -0.382763 1.567541788e-38
3.422000 -1.501671 -0.382118 9.959993681e-39
3.478000 -1.503872 -0.382351 1.272550665e-38
3.587000 -1.503662 -0.382805 1.549102662e-38
3.598000 -1.503469 -0.382850 1.576761351e-38
3.602000 -1.499750 -0.382867 1.558321945e-38
3.421000 -1.495758 -0.382114 1.014438494e-38
3.612000 -1.498992 -0.382909 1.539882819e-38
3.620000 -1.497209 -0.382942 1.558321945e-38
3.422000 -1.490900 -0.382118 1.014438494e-38
3.435000 -1.492324 -0.382172 9.775246491e-39
3.445000 -1.492135 -0.382214 7.839139665e-39
3.623000 -1.492934 -0.382954 1.604419760e-38
3.630000 -1.490611 -0.382984 1.558321945e-38
3.638000 -1.488750 -0.383017 1.567541508e-38
3.641000 -1.484426 -0.383029 1.567649688e-38
3.648000 -1.482030 -0.383058 1.604527660e-38
3.653000 -1.478642 -0.383079 1.604527660e-38
3.654000 -1.473311 -0.383083 1.521551593e-38
3.656000 -1.468455 -0.383092 1.420136400e-38
3.659000 -1.464069 -0.383104 1.420136400e-38
3.661500 -1.456519 -0.383115 1.392369811e-38
3.665000 -1.449430 -0.383129 1.383149968e-38
3.664000 -1.443124 -0.383125 1.355491279e-38
3.663000 -1.436823 -0.383121 1.337052153e-38
3.663000 -1.430991 -0.383121 1.392369531e-38
3.663000 -1.425160 -0.383121 1.337087746e-38
3.664000 -1.419791 -0.383125 1.327868183e-38
3.666000 -1.414879 -0.383133 1.337087746e-38
3.666000 -1.409042 -0.383133 1.309393464e-38
3.666000 -1.403205 -0.383133 1.290954338e-38
3.663000 -1.396002 -0.383121 1.300173901e-38
3.662000 -1.389717 -0.383117 1.300173901e-38
3.660000 -1.382984 -0.383108 1.300173901e-38
3.658000 -1.376258 -0.383100 1.281734775e-38
3.657000 -1.369988 -0.383096 1.272515212e-38
3.658000 -1.364614 -0.383100 1.254076086e-38
3.658000 -1.358791 -0.383100 1.290954338e-38
3.658000 -1.352969 -0.383100 1.272515212e-38
3.659000 -1.347588 -0.383104 1.254076086e-38
3.658000 -1.341325 -0.383100 1.272515212e-38
3.656000 -1.334629 -0.383092 1.263295649e-38
3.657000 -1.329245 -0.383096 1.263295649e-38
3.656000 -1.322992 -0.383092 1.254076086e-38
3.656000 -1.317173 -0.383092 1.226417397e-38
3.656000 -1.311355 -0.383092 1.263295649e-38
3.657000 -1.305964 -0.383096 1.254076086e-38
3.656000 -1.299717 -0.383092 1.244964423e-38
3.655000 -1.293475 -0.383088 1.235744860e-38
3.653000 -1.286814 -0.383079 1.235780453e-38
3.650000 -1.279740 -0.383067 1.217341327e-38
3.648000 -1.273096 -0.383058 1.263331242e-38
3.649000 -1.267709 -0.383063 1.207978271e-38
3.649000 -1.261903 -0.383063 1.217197834e-38
3.648000 -1.255684 -0.383058 1.217197834e-38
3.648000 -1.249881 -0.383058 1.235636960e-38
3.648000 -1.244077 -0.383058 1.207978271e-38
3.648000 -1.238273 -0.383058 1.180319582e-38
3.648000 -1.232470 -0.383058 1.198758708e-38
3.646000 -1.225859 -0.383050 1.235636960e-38
3.643000 -1.218853 -0.383038 1.244856523e-38
3.642000 -1.212659 -0.383033 1.226417397e-38
3.641000 -1.206468 -0.383029 1.226417397e-38
3.642000 -1.201073 -0.383033 1.217197834e-38
3.643000 -1.195675 -0.383038 1.189539145e-38
3.642000 -1.189488 -0.383033 1.207978271e-38
3.641000 -1.183305 -0.383029 1.235636960e-38
3.639000 -1.176736 -0.383021 1.235636960e-38
3.638000 -1.170562 -0.383017 1.244856523e-38
3.637000 -1.164392 -0.383013 1.217197834e-38
3.637000 -1.158608 -0.383013 1.189539145e-38
3.637000 -1.152825 -0.383013 1.235636960e-38
3.636000 -1.146662 -0.383008 1.235636960e-38
3.636000 -1.140880 -0.383008 1.244856803e-38
3.636000 -1.135099 -0.383008 1.217198114e-38
3.636000 -1.129317 -0.383008 1.198758708e-38
3.637000 -1.123908 -0.383013 1.217197834e-38
3.637000 -1.118125 -0.383013 1.198758708e-38
3.636000 -1.111973 -0.383008 1.207978271e-38
3.634000 -1.105458 -0.383000 1.226417397e-38
3.632000 -1.098950 -0.382992 1.207978271e-38
3.629000 -1.092087 -0.382979 1.235636960e-38
3.627000 -1.085596 -0.382971 1.235636960e-38
3.628000 -1.080191 -0.382975 1.207978271e-38
3.628000 -1.074424 -0.382975 1.217233427e-38
3.633000 -1.070435 -0.382996 1.217233427e-38
3.639000 -1.066781 -0.383021 1.226452990e-38
3.642000 -1.062050 -0.383033 1.226452990e-38
3.652000 -1.059757 -0.383075 1.207978271e-38
1.861500 -0.880479 -0.381872 7.415110954e-40
1.859000 -0.876281 -0.383099 9.255422214e-40
1.863000 -0.877747 -0.380635 1.017377718e-39
1.859000 -0.873786 -0.383099 1.017017584e-39
1.863500 -0.873079 -0.380639 9.248219540e-40
1.868500 -0.861376 -0.383191 9.244660242e-40
1.871750 -0.858495 -0.381963 9.251834890e-40
1.877333 -0.856699 -0.382434 7.411509617e-40
1.880000 -0.856760 -0.381613 5.567597020e-40
1.878000 -0.851234 -0.382017 1.202129111e-39
1.873000 -0.845456 -0.383235 1.386520371e-39
1.876000 -0.847405 -0.380737 1.478718803e-39
1.873000 -0.841674 -0.381973 1.385442772e-39
1.875000 -0.844231 -0.380729 1.109936284e-39
1.871333 -0.837658 -0.382377 9.244632216e-40
1.875500 -0.835715 -0.380733 8.326263241e-40
1.872000 -0.832210 -0.383225 1.201408844e-39
1.876000 -0.832246 -0.380737 1.017017584e-39
1.872667 -0.826757 -0.381550 1.570189962e-39
1.872500 -0.822451 -0.382599 2.215557969e-39
1.875000 -0.821510 -0.380729 1.663463190e-39
1.873000 -0.816046 -0.382394 1.385079836e-39
1.875000 -0.818985 -0.380729 1.754579820e-39
1.870000 -0.810808 -0.381948 9.255408201e-40
1.868000 -0.807045 -0.381930 1.018093781e-39
1.865667 -0.802247 -0.381491 2.215557969e-39
1.863000 -0.797671 -0.383137 2.768731749e-39
1.866000 -0.797020 -0.380659 2.677615119e-39
1.863000 -0.792665 -0.383137 2.031888378e-39
1.867400 -0.791105 -0.381673 1.295040804e-39
1.870750 -0.787369 -0.381955 2.125158804e-39
1.868667 -0.780657 -0.381517 1.756735017e-39
1.870000 -0.783139 -0.383205 2.493939922e-39
1.864000 -0.774499 -0.380643 1.111005474e-39
1.865000 -0.775101 -0.383157 1.479787994e-39
1.861000 -0.770196 -0.381869 1.387592364e-39
1.860333 -0.766466 -0.381446 2.217354434e-39
1.859000 -0.764007 -0.383099 2.770170882e-39
1.862500 -0.762340 -0.381881 2.031526843e-39
1.866000 -0.760655 -0.380659 8.337025214e-40
1.862500 -0.757338 -0.383133 1.477994332e-39
1.865000 -0.757559 -0.380651 1.847498520e-39
1.861333 -0.752069 -0.381455 2.215920906e-39
1.857000 -0.746622 -0.381835 2.307756402e-39
1.855000 -0.742551 -0.382231 1.293247142e-39
1.851750 -0.736112 -0.381787 9.248219540e-40
1.851500 -0.731004 -0.381785 9.248219540e-40
1.853667 -0.727693 -0.381390 9.248219540e-40
1.857000 -0.726689 -0.381832 1.017017584e-39
1.861333 -0.726241 -0.382288 1.385800103e-39
1.868000 -0.726673 -0.381930 1.570551497e-39
1.858000 -0.405647 -0.381842 1.244892116e-38
1.860000 -0.407556 -0.380612 1.244891976e-38
1.856750 -0.401496 -0.381831 1.244892116e-38
1.858250 -0.397001 -0.382468 1.235708566e-38
1.860000 -0.395072 -0.380612 1.254076086e-38
1.862000 -0.391965 -0.381878 1.254111679e-38
1.863667 -0.387908 -0.382309 1.208121764e-38
1.866000 -0.385302 -0.381495 1.281914001e-38
1.868250 -0.381402 -0.381932 1.847141189e-39
1.869000 -0.377865 -0.383196 9.244660242e-40
1.871000 -0.376801 -0.381537 1.109576150e-39
1.872200 -0.371793 -0.381714 1.662031063e-39
1.873500 -0.367900 -0.383239 1.662031063e-39
1.875667 -0.365602 -0.381577 1.846063590e-39
1.877500 -0.361510 -0.382013 2.583988763e-39
1.878000 -0.356596 -0.382018 2.583987362e-39
1.878333 -0.352053 -0.382443 2.491791732e-39
1.880000 -0.350841 -0.380769 1.938617953e-39
1.882750 -0.347816 -0.382060 2.308479472e-39
1.885000 -0.344639 -0.382080 2.308479472e-39
1.887500 -0.341516 -0.382102 2.492510598e-39
1.888500 -0.336694 -0.382110 2.583988763e-39
1.889500 -0.331865 -0.382119 2.583628629e-39
1.889500 -0.326762 -0.382119 1.938978086e-39
1.889750 -0.321725 -0.382121 2.123009212e-39
1.890000 -0.317962 -0.383400 2.307400472e-39
1.891333 -0.316604 -0.381709 2.953488747e-39
1.891750 -0.312027 -0.382139 3.230077038e-39
1.892500 -0.307104 -0.382145 4.059477573e-39
1.894000 -0.302361 -0.382158 4.704845581e-39
1.894500 -0.297363 -0.383443 4.614089085e-39
1.896500 -0.297851 -0.380898 5.166904131e-39
1.897200 -0.292120 -0.381929 4.244228967e-39
1.899400 -0.286479 -0.382463 3.968359542e-39
1.900000 -0.281994 -0.383497 3.138240141e-39
1.901000 -0.280510 -0.381791 2.676182992e-39
1.900000 -0.276852 -0.383497 2.676182992e-39
1.901000 -0.275794 -0.380934 2.491791732e-39
1.900000 -0.272996 -0.383497 2.030813583e-39
1.901000 -0.270220 -0.381791 2.123009212e-39
1.902250 -0.265777 -0.382231 2.215204842e-39
1.904250 -0.261059 -0.382248 2.583628629e-39
1.904500 -0.255955 -0.382250 3.229716904e-39
1.904667 -0.251261 -0.382682 3.875086314e-39
1.906000 -0.249819 -0.380973 3.507741526e-39
1.905000 -0.245741 -0.383545 4.153110935e-39
1.906000 -0.245946 -0.380973 3.047846581e-39
1.905000 -0.241871 -0.383545 3.784328416e-39
1.906000 -0.240782 -0.380973 4.059837707e-39
1.905000 -0.238001 -0.383545 5.258379494e-39
1.906333 -0.235254 -0.381836 5.534966383e-39
1.906667 -0.231014 -0.381839 5.165104864e-39
1.905000 -0.228971 -0.383545 6.918258163e-39
1.906000 -0.226582 -0.382264 5.627522147e-39
1.906500 -0.222802 -0.382268 4.887800510e-39
1.907000 -0.217730 -0.382273 4.242789833e-39
1.907250 -0.212607 -0.382275 4.518299124e-39
1.907750 -0.207527 -0.382279 3.044605377e-39
1.909500 -0.202660 -0.382294 3.044606779e-39
1.910000 -0.198863 -0.382299 2.307400472e-39
1.911500 -0.196527 -0.382312 2.583627228e-39
1.913000 -0.192887 -0.382325 2.215204842e-39
1.913000 -0.187698 -0.382325 2.123369346e-39
1.910000 -0.180738 -0.383594 2.491791732e-39
1.912000 -0.182782 -0.381884 2.123728079e-39
1.911500 -0.177086 -0.382312 2.584347495e-39
1.912500 -0.172054 -0.382321 2.859855385e-39
1.914500 -0.167160 -0.382339 2.216283842e-39
1.915000 -0.163337 -0.383642 2.768378621e-39
1.916000 -0.161748 -0.381918 2.677622125e-39
1.918250 -0.157295 -0.382372 2.953130015e-39
1.920000 -0.153629 -0.382387 2.215564976e-39
1.921000 -0.151157 -0.382396 1.662031063e-39
1.922500 -0.147441 -0.382409 1.293967410e-39
1.922750 -0.142248 -0.382412 1.478357268e-39
1.923000 -0.137054 -0.382414 1.477995733e-39
1.922000 -0.131706 -0.382405 1.477995733e-39
1.920000 -0.124943 -0.382387 1.570191363e-39
1.921000 -0.127670 -0.382396 1.477995733e-39
1.920000 -0.121032 -0.382387 1.477995733e-39
1.919000 -0.116140 -0.381944 1.477639803e-39
1.917667 -0.112521 -0.382800 1.477639803e-39
1.918000 -0.107782 -0.382369 1.385444173e-39
1.918750 -0.102650 -0.382376 1.293248544e-39
1.918500 -0.097415 -0.382373 1.017018985e-39
1.917500 -0.092112 -0.382365 1.201408844e-39
1.917500 -0.086905 -0.382365 1.201052914e-39
1.917750 -0.081720 -0.382367 1.201410245e-39
1.919750 -0.076678 -0.382385 1.201052914e-39
1.920000 -0.071049 -0.382822 1.201410245e-39
1.921000 -0.072867 -0.381091 1.017740654e-39
1.919333 -0.066652 -0.382815 1.293964607e-39
1.921000 -0.065038 -0.381091 1.109933481e-39
1.919250 -0.060999 -0.382380 1.477995733e-39
1.918500 -0.055735 -0.382373 1.477995733e-39
1.918000 -0.051794 -0.382369 1.477995733e-39
1.918500 -0.047920 -0.382373 1.385800103e-39
1.918000 -0.042681 -0.382369 1.477639803e-39
1.917500 -0.037444 -0.382365 1.293248544e-39
1.917250 -0.032225 -0.382362 1.200692780e-39
1.917000 -0.027008 -0.382360 1.016302922e-39
1.917750 -0.021836 -0.382367 1.292888410e-39
1.916750 -0.016589 -0.382358 1.385441371e-39
1.915000 -0.011321 -0.383642 1.477995733e-39
1.917000 -0.011394 -0.381060 1.477639803e-39
1.914500 -0.006107 -0.383638 1.477995733e-39
1.917500 -0.006206 -0.381063 1.477995733e-39
1.915000 -0.002226 -0.383642 1.662386993e-39
1.917333 -0.000562 -0.381929 1.569832631e-39
1.917000 0.004219 -0.382360 1.477279670e-39
1.915000 0.008168 -0.383642 1.292529678e-39
1.916000 0.008145 -0.381052 1.662031063e-39
1.913500 0.012094 -0.382329 1.385085441e-39
1.909250 0.017356 -0.382292 1.385444173e-39
1.903500 0.023892 -0.382242 1.201052914e-39
1.906000 0.021281 -0.382264 1.385444173e-39
1.899000 0.029082 -0.383487 1.938617953e-39
1.902000 0.027341 -0.381800 1.385801505e-39
1.899250 0.032934 -0.382204 1.570192764e-39
1.902000 0.036782 -0.382228 1.754584024e-39
2.113000 0.051118 -0.381119 1.293248544e-39
2.118000 0.054126 -0.381153 1.662031063e-39
2.122000 0.058634 -0.381181 2.123009212e-39
2.122000 0.063106 -0.381181 1.754582623e-39
2.122500 0.067587 -0.381185 7.839489990e-39
2.123000 0.072070 -0.379696 7.839845920e-39
2.125333 0.074108 -0.381701 7.839844518e-39
2.126500 0.078119 -0.381212 8.023874243e-39
2.126000 0.082590 -0.381208 8.208265503e-39
2.125750 0.088561 -0.381207 8.208265503e-39
2.127000 0.093084 -0.381216 8.393016896e-39
2.128000 0.097107 -0.380724 8.485213927e-39
2.130000 0.099175 -0.382734 8.761799416e-39
2.129000 0.102133 -0.379732 8.577053627e-39
2.130333 0.104182 -0.381738 8.577410959e-39
2.131000 0.108205 -0.381244 8.577053627e-39
2.133000 0.112793 -0.381257 8.761444887e-39
2.134000 0.118844 -0.379762 8.761444887e-39
2.135000 0.118893 -0.382773 8.761444887e-39
2.136500 0.123478 -0.381281 8.669249257e-39
2.138000 0.128072 -0.381292 8.853640517e-39
2.139000 0.132645 -0.379792 9.130230209e-39
2.141000 0.132759 -0.382820 8.853640517e-39
2.141000 0.137283 -0.381313 9.038033178e-39
2.143000 0.143444 -0.381326 8.946556414e-39
2.144000 0.148040 -0.381334 9.131306406e-39
2.145000 0.151130 -0.379828 8.762523887e-39
2.147667 0.153331 -0.381863 9.039113579e-39
2.149000 0.157464 -0.379852 9.315700469e-39
2.150500 0.159089 -0.381377 9.407896099e-39
2.153667 0.162866 -0.381906 9.775958351e-39
2.155000 0.167021 -0.379888 1.051316466e-38
2.157000 0.169207 -0.381931 1.051316606e-38
