# This PCD file was generated using the MATLAB® pcwrite function
# from Computer Vision System Toolbox®.
# .PCD v.7 - Point Cloud Data file format
VERSION .7
FIELDS x y z rgb
SIZE 4 4 4 4
TYPE F F F F
COUNT 1 1 1 1
WIDTH 1082
HEIGHT 1
VIEWPOINT 0 0 0 1 0 0 0
POINTS 1082
DATA ascii
2.946790 0.365261 -0.456741 1.908736944e-38
2.962667 0.371523 -0.449005 1.871966873e-38
2.896000 0.383104 -0.463774 1.936359340e-38
2.946000 0.398097 -0.459721 1.936467380e-38
2.965955 0.405148 -0.452067 1.964126770e-38
3.275209 0.508287 -0.458560 2.010225005e-38
3.258000 0.549513 -0.467837 1.964090616e-38
3.273480 0.542865 -0.456723 1.927248938e-38
3.429500 -1.579067 -0.421567 1.294324741e-39
3.427130 -1.542797 -0.419070 6.363649454e-39
3.429970 -1.501446 -0.420678 9.959637751e-39
3.491292 -1.505941 -0.423078 1.493748710e-38
3.536436 -1.510131 -0.420485 1.576761211e-38
3.585396 -1.505656 -0.419762 1.549210562e-38
3.639390 -1.488620 -0.418952 1.567613534e-38
3.656542 -1.462893 -0.415105 1.420172133e-38
3.662848 -1.438071 -0.419167 1.364782588e-38
3.658857 -1.373316 -0.402239 1.290954198e-38
3.664277 -1.395604 -0.419834 1.309429057e-38
3.656853 -1.335349 -0.415795 1.254183565e-38
3.661737 -1.353397 -0.420088 1.272622551e-38
3.653123 -1.295231 -0.417882 1.235744439e-38
3.648961 -1.245075 -0.418651 1.226453410e-38
3.642667 -1.193699 -0.417108 1.198830595e-38
3.635797 -1.144334 -0.418702 1.208014144e-38
3.635171 -1.092791 -0.421196 1.208050017e-38
3.641462 -1.063195 -0.415122 1.226453270e-38
1.855889 -0.878312 -0.401871 8.326277254e-40
1.866765 -0.875637 -0.400812 1.201767576e-39
1.856947 -0.834766 -0.410874 1.109930679e-39
1.866393 -0.839806 -0.403101 1.663105859e-39
1.946000 -0.821171 -0.442373 1.281517574e-38
1.858235 -0.783939 -0.411473 2.676897654e-39
1.864042 -0.794438 -0.410268 3.967276338e-39
1.946500 -0.817486 -0.442398 1.253895038e-38
1.852853 -0.744828 -0.410672 4.428613220e-39
1.866521 -0.733396 -0.423274 9.406458366e-39
1.863000 -0.718846 -0.423176 1.097414561e-38
1.805000 -0.378944 -0.427280 1.493784163e-38
1.845006 -0.387699 -0.415163 1.337087606e-38
1.864711 -0.379007 -0.404974 4.428618825e-39
1.850935 -0.354593 -0.428593 1.318647919e-38
1.875000 -0.341970 -0.412697 6.824624800e-39
1.017273 -0.286700 -0.413588 7.931318480e-39
1.885290 -0.294668 -0.416598 7.839136863e-39
1.025460 -0.244583 -0.414573 8.023514109e-39
1.894600 -0.245087 -0.416663 8.207560650e-39
1.029193 -0.194266 -0.416029 7.839125652e-39
1.897099 -0.196031 -0.418975 9.129875681e-39
1.911714 -0.181872 -0.402189 1.846422323e-39
1.031297 -0.143634 -0.416363 7.931322683e-39
1.897177 -0.146198 -0.428411 1.300172920e-38
1.919811 -0.143395 -0.407997 3.044962708e-39
1.033116 -0.094551 -0.417080 7.931322683e-39
1.898893 -0.094958 -0.428735 1.383149127e-38
1.915239 -0.093387 -0.407607 1.754223890e-39
1.034195 -0.044795 -0.417425 7.931324085e-39
1.897407 -0.044005 -0.427765 1.318684213e-38
1.913134 -0.044139 -0.406614 1.846419520e-39
1.033266 -0.000517 -0.419331 6.824977928e-39
1.852067 0.025142 -0.432505 1.475380770e-38
1.894201 0.005624 -0.416659 8.299756280e-39
1.911077 -0.013869 -0.400348 1.662386993e-39
1.032145 0.056374 -0.413247 9.590851027e-39
1.851167 0.034421 -0.428908 1.503039459e-38
1.891590 0.036567 -0.410558 5.811193139e-39
2.104000 0.056952 -0.438543 1.567576680e-38
2.128810 0.069884 -0.412960 1.014402761e-38
2.403250 0.064510 -0.436528 1.189574598e-38
2.418727 0.063509 -0.428645 1.847141189e-39
1.033651 0.105902 -0.418371 7.193763250e-39
1.067000 0.095887 -0.401163 1.705870125e-38
2.139117 0.105091 -0.416971 1.106633844e-38
1.034244 0.158072 -0.417932 8.761447690e-39
2.152437 0.147099 -0.414936 1.097414281e-38
2.163744 0.171190 -0.416608 1.226452710e-38
1.034881 0.205521 -0.419147 8.576697698e-39
2.183919 0.206466 -0.415667 1.254183285e-38
1.033945 0.255719 -0.419118 8.853644721e-39
2.181900 0.237123 -0.415610 9.407180035e-39
1.032664 0.305704 -0.419155 9.314264138e-39
1.852000 0.326054 -0.430189 1.908665058e-38
1.872091 0.327013 -0.425573 1.954762873e-38
1.031094 0.355620 -0.418545 9.867796649e-39
1.857400 0.335430 -0.434419 1.779591176e-38
1.891377 0.355387 -0.415710 1.125073951e-38
2.968016 0.367923 -0.421345 2.028699584e-38
1.029251 0.394638 -0.418737 1.032877480e-38
1.902239 0.401684 -0.427673 1.576796383e-38
1.915848 0.409216 -0.408181 7.010099264e-39
2.978224 0.404502 -0.420569 2.010296891e-38
1.906144 0.455738 -0.432301 1.742748517e-38
1.923723 0.455626 -0.411941 1.097451835e-38
2.996200 0.436137 -0.402423 2.001041455e-38
3.013000 0.441592 -0.408192 1.973490806e-38
1.908778 0.495349 -0.431873 1.724309251e-38
1.925983 0.507188 -0.416779 9.591219569e-39
3.253667 0.510658 -0.401715 2.010333045e-38
3.278145 0.509165 -0.425389 2.001077469e-38
1.926341 0.555783 -0.417892 9.313911011e-39
3.235846 0.554896 -0.423212 7.471445955e-39
3.276265 0.542390 -0.424129 2.010225145e-38
1.907577 0.617255 -0.431290 1.779626909e-38
1.925256 0.604794 -0.416428 9.037325522e-39
1.906154 0.660265 -0.431790 1.807285598e-38
1.921437 0.654123 -0.413509 7.470358547e-39
1.838333 0.729730 -0.434490 2.000932855e-38
1.898637 0.710417 -0.428368 1.696651123e-38
1.916648 0.702923 -0.408473 4.243871636e-39
1.845071 0.734443 -0.432165 2.019300234e-38
1.895477 0.750957 -0.413805 9.222081120e-39
1.911571 0.737026 -0.398606 2.952415353e-39
3.427222 -1.572777 -0.380349 1.201770379e-39
3.423793 -1.543628 -0.371283 3.966561676e-39
3.426382 -1.500156 -0.370962 9.866723255e-39
3.492913 -1.507053 -0.368983 1.502968273e-38
3.537512 -1.509923 -0.372698 1.567541508e-38
3.583377 -1.503086 -0.371211 1.558358098e-38
3.635919 -1.487830 -0.370029 1.558393971e-38
3.655857 -1.450095 -0.362176 1.383222135e-38
3.662219 -1.439735 -0.378020 1.364746715e-38
3.658174 -1.379376 -0.367151 1.281770368e-38
3.662277 -1.401753 -0.368486 1.300245507e-38
3.657355 -1.343674 -0.368358 1.254147692e-38
3.660000 -1.353854 -0.374369 1.272586818e-38
3.653297 -1.295668 -0.368548 1.226525017e-38
3.647453 -1.246762 -0.368551 1.208049877e-38
3.639220 -1.195558 -0.368901 1.208014004e-38
3.633986 -1.143860 -0.369334 1.207978271e-38
3.630518 -1.092646 -0.371446 1.198794581e-38
3.639000 -1.061212 -0.370562 1.207977991e-38
1.859000 -0.875033 -0.383099 9.251820877e-40
1.873313 -0.878031 -0.364723 8.326291267e-40
1.875046 -0.843869 -0.369348 1.293964607e-39
1.872341 -0.794525 -0.368622 1.202129111e-39
1.855333 -0.738782 -0.379327 1.202127710e-39
1.865222 -0.744258 -0.362281 1.478713198e-39
1.856644 -0.399012 -0.383066 1.226525017e-38
1.868931 -0.385512 -0.366355 7.378521650e-39
1.885934 -0.344606 -0.369516 2.584347495e-39
1.899107 -0.294531 -0.369357 3.414108164e-39
1.906085 -0.247706 -0.374884 3.967281943e-39
1.912825 -0.235335 -0.353088 2.676182992e-39
1.907957 -0.204902 -0.385657 3.321193668e-39
1.915092 -0.191572 -0.364588 3.505943660e-39
1.920201 -0.144685 -0.370443 2.031172315e-39
1.920784 -0.093724 -0.370623 1.293605875e-39
1.910000 -0.022791 -0.393951 1.570191363e-39
1.920317 -0.044186 -0.370550 1.293605875e-39
1.905863 0.021873 -0.377287 1.662031063e-39
1.916578 0.000342 -0.367469 1.754225292e-39
1.901710 0.034417 -0.370108 1.754226693e-39
2.105152 0.056794 -0.355453 2.768378621e-39
2.118876 0.066317 -0.373253 5.626437542e-39
2.125787 0.105032 -0.369304 8.761083352e-39
2.144395 0.154179 -0.368092 9.499370060e-39
2.162222 0.176917 -0.385029 1.125109263e-38
2.157500 0.182450 -0.354006 9.868874248e-39
2.181637 0.206816 -0.369633 1.125109123e-38
2.184827 0.237179 -0.370646 9.038394713e-39
1.901697 0.346730 -0.373067 7.931339499e-39
1.915072 0.369715 -0.362346 4.612298225e-39
2.979032 0.365920 -0.370254 2.213019097e-38
1.923012 0.405460 -0.370618 6.456569555e-39
2.990157 0.405833 -0.371121 2.231458363e-38
1.932689 0.455644 -0.370475 5.073635107e-39
2.999979 0.453918 -0.367858 2.185360548e-38
3.015000 0.460445 -0.389690 2.065614269e-38
1.936875 0.505899 -0.370674 3.321556605e-39
2.994257 0.496912 -0.367350 1.881114829e-38
1.938806 0.556173 -0.370738 2.307403275e-39
1.936866 0.605957 -0.370744 2.307044542e-39
1.931594 0.655812 -0.370655 2.675828463e-39
1.923652 0.705535 -0.370523 2.583632833e-39
1.905769 0.760868 -0.377630 5.072560311e-39
1.916706 0.745549 -0.365661 4.243158375e-39
3.558100 1.672893 -0.366899 2.240750093e-38
3.562546 1.675325 -0.369363 2.240749953e-38
3.559056 1.691200 -0.361697 2.259117192e-38
3.565892 1.709410 -0.368361 2.268300602e-38
3.570784 1.755954 -0.363308 2.268300602e-38
3.571608 1.801271 -0.364096 2.268264868e-38
3.420580 -1.540192 -0.321573 2.123366544e-39
3.429091 -1.501951 -0.320301 9.221712578e-39
3.491909 -1.507330 -0.321250 1.300173480e-38
3.538476 -1.512088 -0.320588 1.558285931e-38
3.587315 -1.506625 -0.320197 1.549138395e-38
3.636235 -1.487828 -0.319411 1.539990719e-38
3.656429 -1.447537 -0.318418 1.364782728e-38
3.660000 -1.433299 -0.323260 1.337087886e-38
3.657909 -1.401269 -0.318353 1.291061817e-38
3.661583 -1.390131 -0.319483 1.281770508e-38
3.655778 -1.340539 -0.319463 1.244964002e-38
3.661000 -1.364658 -0.316417 1.254147692e-38
3.650431 -1.294448 -0.319179 1.208121764e-38
3.645527 -1.245269 -0.319657 1.198830174e-38
3.638582 -1.193353 -0.319008 1.171171625e-38
3.636333 -1.143898 -0.319413 1.180355175e-38
3.632078 -1.094416 -0.320071 1.161880176e-38
3.634228 -1.058976 -0.315804 1.152732219e-38
1.879758 -0.878993 -0.317929 9.251834890e-40
1.885853 -0.843660 -0.319954 1.293964607e-39
1.885442 -0.793809 -0.319514 1.385801505e-39
1.875702 -0.739748 -0.319728 1.201770379e-39
1.883667 -0.718565 -0.300339 1.293966008e-39
1.880735 -0.387743 -0.320171 8.208282318e-39
1.897990 -0.345045 -0.319498 2.860934385e-39
1.911250 -0.322178 -0.296787 3.597783360e-39
1.905515 -0.301621 -0.327726 2.952769881e-39
1.914594 -0.287098 -0.309321 3.229356771e-39
1.909750 -0.267425 -0.340875 3.781451550e-39
1.919576 -0.244249 -0.318196 3.321553802e-39
1.925411 -0.194648 -0.319463 3.321553802e-39
1.928244 -0.144281 -0.320762 4.151674604e-39
1.930058 -0.094600 -0.320729 3.875087715e-39
1.930424 -0.044715 -0.320722 2.491791732e-39
1.909000 0.029003 -0.342185 1.663110063e-39
1.925080 0.004965 -0.320159 3.137161141e-39
1.908842 0.034179 -0.335241 1.754223890e-39
1.918545 0.037386 -0.308502 3.227202975e-39
2.096534 0.065901 -0.329945 6.363643849e-39
2.112000 0.068888 -0.314446 1.678246749e-38
2.424800 0.070990 -0.296515 7.102652225e-39
2.103369 0.097159 -0.327771 9.867428108e-39
2.114177 0.114406 -0.336059 9.683398383e-39
2.132455 0.152790 -0.334460 1.014366187e-38
2.155636 0.184505 -0.338114 9.683399785e-39
2.175156 0.202910 -0.339213 1.005182497e-38
1.923611 0.329553 -0.317056 1.715198849e-38
1.908200 0.340657 -0.336213 7.838070475e-39
1.923218 0.356102 -0.317742 6.455852090e-39
2.985080 0.361890 -0.338728 2.286595394e-38
3.014000 0.372285 -0.324846 2.314254223e-38
3.527917 0.365141 -0.301622 1.171135472e-38
1.936589 0.405634 -0.320487 7.193417129e-39
3.003538 0.405437 -0.336381 2.323437773e-38
3.012091 0.406951 -0.326563 2.314254223e-38
3.527318 0.404384 -0.303155 1.005183338e-38
1.944701 0.455601 -0.320208 4.059843312e-39
3.006875 0.452544 -0.339598 2.295851250e-38
3.017242 0.456607 -0.329274 2.305034800e-38
3.277000 0.478832 -0.299633 2.028664271e-38
3.504500 0.473374 -0.304925 2.212874763e-38
3.518125 0.453420 -0.301498 1.125037657e-38
1.948648 0.505767 -0.320296 2.399598905e-39
3.000793 0.499335 -0.336999 1.973274586e-38
3.017364 0.494568 -0.326891 2.286631687e-38
3.277900 0.507131 -0.299610 2.028628258e-38
3.505000 0.481756 -0.304914 2.286667421e-38
3.511000 0.482641 -0.299233 7.839862735e-39
1.950869 0.555736 -0.319766 2.214847511e-39
3.243500 0.556932 -0.295430 1.493929478e-38
3.274200 0.544837 -0.298685 2.056287087e-38
1.949683 0.605599 -0.320302 2.215207645e-39
1.945363 0.655624 -0.320218 2.399959038e-39
1.939134 0.706094 -0.320442 2.675828463e-39
1.927519 0.750789 -0.320574 4.058769918e-39
3.556947 1.665578 -0.315800 2.249933502e-38
3.562000 1.675545 -0.333782 2.259152925e-38
3.558167 1.711384 -0.318167 2.286667841e-38
3.562651 1.704127 -0.322041 2.277484291e-38
3.559400 1.736192 -0.309373 2.295851391e-38
3.566250 1.758288 -0.321429 2.286667701e-38
3.570744 1.805641 -0.321132 2.286631828e-38
3.572702 1.849722 -0.318647 1.078365450e-38
3.417982 -1.535171 -0.269823 1.754584024e-39
3.423597 -1.499796 -0.268956 7.377081115e-39
3.491080 -1.505583 -0.271699 1.456942065e-38
3.538895 -1.511047 -0.269548 1.539882819e-38
3.586589 -1.505543 -0.268696 1.530699409e-38
3.635849 -1.487728 -0.269528 1.539918692e-38
3.653158 -1.446580 -0.267637 1.355527292e-38
3.660267 -1.436707 -0.277457 1.337052433e-38
3.656782 -1.395602 -0.271035 1.281806381e-38
3.660600 -1.389082 -0.266570 1.272550805e-38
3.653439 -1.343031 -0.269186 1.244927989e-38
3.649578 -1.294081 -0.269834 1.208049737e-38
3.645000 -1.245761 -0.269977 1.189646625e-38
3.635366 -1.192995 -0.270494 1.180391048e-38
3.634246 -1.143511 -0.270098 1.152732359e-38
3.629516 -1.095168 -0.270476 1.143512656e-38
3.630824 -1.055729 -0.268918 1.134257360e-38
1.893887 -0.887362 -0.268438 1.017018985e-39
1.900974 -0.846997 -0.272351 1.293605875e-39
1.913731 -0.834067 -0.253767 1.478353064e-39
1.900596 -0.793941 -0.270906 1.293605875e-39
1.911273 -0.801288 -0.251667 1.109574749e-39
1.895679 -0.741987 -0.270414 1.293966008e-39
1.914200 -0.725228 -0.254804 1.293248544e-39
1.892583 -0.718591 -0.284956 1.477639803e-39
1.896563 -0.387080 -0.271790 8.946206090e-39
1.911571 -0.371328 -0.249554 1.385444173e-39
1.905922 -0.354963 -0.279951 2.676543125e-39
1.916240 -0.338126 -0.263135 3.137521275e-39
1.922553 -0.294699 -0.269398 3.044966912e-39
1.932446 -0.244320 -0.269199 2.215204842e-39
1.936975 -0.193912 -0.270076 2.583628629e-39
1.940627 -0.144473 -0.270064 3.044965511e-39
1.942357 -0.094298 -0.269972 4.613012887e-39
1.942762 -0.044646 -0.270239 3.229358172e-39
1.938800 0.004897 -0.270133 4.059481777e-39
1.933115 0.036712 -0.274197 3.230084045e-39
2.446304 0.071340 -0.273785 7.654747004e-39
2.463000 0.077024 -0.249897 7.285244217e-39
2.390000 0.086068 -0.287420 1.078939982e-38
2.445846 0.104778 -0.256434 4.243508699e-39
2.470286 0.087268 -0.249190 4.980353471e-39
3.529000 0.127942 -0.254139 1.659736857e-38
2.432493 0.156733 -0.253709 1.385804307e-39
3.531555 0.155961 -0.254041 1.687503867e-38
2.406000 0.196923 -0.272690 1.846422323e-39
2.421515 0.205834 -0.257251 1.477639803e-39
3.529000 0.207826 -0.257146 1.604527940e-38
2.404250 0.265093 -0.276284 1.662032464e-39
2.416880 0.256136 -0.259397 1.570196968e-39
3.528857 0.255558 -0.267702 1.475417344e-38
2.408000 0.328727 -0.276098 1.478720204e-39
2.414635 0.304933 -0.260332 1.662392598e-39
3.529140 0.309233 -0.273745 1.272550805e-38
1.940981 0.356232 -0.270324 3.966930217e-39
2.417532 0.353923 -0.259508 1.846425125e-39
3.531364 0.354583 -0.281740 1.078939702e-38
1.951528 0.404399 -0.272151 5.998116545e-39
1.960704 0.415062 -0.248839 5.720450656e-39
2.407000 0.411024 -0.248081 2.585074769e-39
2.418078 0.394846 -0.255674 1.847143992e-39
3.534833 0.407830 -0.284686 1.032841887e-38
1.954982 0.452034 -0.281725 4.427906965e-39
1.963099 0.458815 -0.258634 4.520825665e-39
3.257000 0.478198 -0.269659 2.037811947e-38
3.283286 0.478361 -0.286299 1.982674356e-38
3.528556 0.457308 -0.284860 1.032842027e-38
1.957500 0.502557 -0.288493 2.123010614e-39
1.965039 0.506402 -0.264655 2.859856786e-39
3.259000 0.486146 -0.269585 2.056251073e-38
3.287135 0.506821 -0.281906 2.019480721e-38
3.507000 0.487594 -0.293784 1.281914561e-38
3.520428 0.486415 -0.283896 1.226633057e-38
1.958356 0.556921 -0.290247 2.215206244e-39
1.966003 0.555504 -0.266535 4.336791737e-39
3.249429 0.556965 -0.282957 1.650662048e-38
3.283559 0.543219 -0.281519 2.047103397e-38
1.958024 0.609135 -0.290771 2.123012015e-39
1.966413 0.605382 -0.266728 4.243877241e-39
1.956359 0.660552 -0.285336 2.583634235e-39
1.966031 0.653206 -0.262353 4.427545430e-39
1.952232 0.707625 -0.281152 3.044973919e-39
1.965799 0.704862 -0.256541 7.284536562e-39
1.945480 0.747392 -0.271698 3.966212753e-39
1.960000 0.731228 -0.247309 1.429211769e-38
3.554787 1.659349 -0.268858 2.268300602e-38
3.562714 1.674316 -0.271396 2.277484291e-38
3.556979 1.708781 -0.266452 2.295851250e-38
3.562687 1.699558 -0.276491 2.286667841e-38
3.558800 1.738866 -0.269156 2.295887264e-38
3.564435 1.760773 -0.269005 2.295851250e-38
3.559500 1.823668 -0.283989 2.304963194e-38
3.566581 1.806036 -0.269572 2.295851391e-38
3.571676 1.856033 -0.267664 9.215604318e-39
3.405000 -1.522501 -0.203828 1.293248544e-39
3.417632 -1.526811 -0.229548 1.846422323e-39
3.423453 -1.500685 -0.219837 5.072550502e-39
3.488700 -1.505840 -0.220441 1.383077661e-38
3.537860 -1.512052 -0.220067 1.530663116e-38
3.585914 -1.504244 -0.218310 1.512332030e-38
3.634116 -1.485050 -0.221224 1.530699129e-38
3.651607 -1.444130 -0.220176 1.346307589e-38
3.655368 -1.394055 -0.220357 1.272586678e-38
3.652763 -1.343928 -0.220406 1.235708426e-38
3.646630 -1.293186 -0.220388 1.198830174e-38
3.643292 -1.245055 -0.220780 1.189574598e-38
3.637937 -1.194274 -0.221548 1.161880176e-38
3.633270 -1.143444 -0.220718 1.161916189e-38
3.628139 -1.094666 -0.221510 1.161916049e-38
3.625807 -1.050882 -0.219505 1.152732499e-38
1.902123 -0.889199 -0.221540 1.201410245e-39
1.912108 -0.882142 -0.212675 1.293604473e-39
1.907939 -0.856861 -0.233552 1.477637001e-39
1.919156 -0.843559 -0.215656 1.293964607e-39
1.908778 -0.776140 -0.240862 2.122646276e-39
1.921261 -0.796361 -0.217926 1.201768977e-39
1.906720 -0.746888 -0.237864 1.016660253e-39
1.919684 -0.751962 -0.217498 1.109214615e-39
1.907659 -0.383508 -0.239061 1.198830314e-38
1.916182 -0.378476 -0.222086 1.152696626e-38
1.926490 -0.344490 -0.219575 4.243868833e-39
1.938086 -0.293744 -0.219543 2.583987362e-39
1.945412 -0.244714 -0.220113 2.675824259e-39
1.950985 -0.195014 -0.220450 3.044966912e-39
1.960571 -0.171848 -0.198585 6.087065367e-39
1.953807 -0.146072 -0.223719 3.136802408e-39
1.961368 -0.138069 -0.200993 5.259102564e-39
1.954462 -0.094497 -0.228131 3.875446447e-39
1.962091 -0.094486 -0.203469 4.242789833e-39
1.955286 -0.042060 -0.226362 3.321555203e-39
1.961625 -0.047285 -0.203488 3.504868864e-39
1.952160 0.001256 -0.225209 3.044968314e-39
1.963217 0.005087 -0.205079 1.846066393e-39
2.455333 0.075080 -0.226985 1.477644007e-39
2.463000 0.075670 -0.240419 3.598140692e-39
2.446075 0.107671 -0.227174 2.030817786e-39
2.465250 0.092653 -0.226722 2.583992967e-39
2.432739 0.154577 -0.227666 2.400320573e-39
2.420833 0.205768 -0.231372 2.768387029e-39
2.417890 0.255630 -0.232966 2.953860091e-39
2.417552 0.306060 -0.232333 3.414838241e-39
1.954990 0.363358 -0.233524 6.732441782e-39
1.965766 0.367552 -0.215668 1.641406612e-38
2.419000 0.354954 -0.232857 3.600309902e-39
1.959000 0.383254 -0.236227 4.520454321e-39
1.968184 0.406322 -0.219426 7.101220098e-39
2.405714 0.409269 -0.236642 4.153126350e-39
2.420500 0.396352 -0.232413 3.876539460e-39
1.973488 0.456021 -0.220393 8.021737263e-39
1.977258 0.505853 -0.220030 4.607982226e-39
1.979349 0.555516 -0.219886 8.297245153e-39
1.980528 0.605730 -0.219915 7.469282350e-39
1.978691 0.655593 -0.219713 7.101948773e-39
1.974104 0.705152 -0.222136 4.981086350e-39
1.956348 0.741349 -0.239940 3.045334053e-39
1.962464 0.736336 -0.230305 3.413757840e-39
3.547444 1.627174 -0.210991 2.249969376e-38
3.551824 1.657928 -0.218222 2.286667701e-38
3.556790 1.706572 -0.221266 2.295851250e-38
3.562000 1.715435 -0.214489 2.305070813e-38
3.557354 1.748558 -0.220995 2.295887264e-38
3.562667 1.770239 -0.215441 2.305070813e-38
3.560000 1.813243 -0.212335 2.314182617e-38
3.565338 1.805076 -0.218843 2.305034800e-38
3.566416 1.854324 -0.219230 9.584029507e-39
3.407667 -1.524452 -0.189124 9.244660242e-40
3.413500 -1.521334 -0.186076 1.292889811e-39
3.409000 -1.516235 -0.167596 1.292529678e-39
3.420059 -1.500294 -0.169744 3.412308897e-39
3.487652 -1.504565 -0.167379 1.152444533e-38
3.538461 -1.512022 -0.169612 1.521335512e-38
3.585156 -1.503568 -0.170419 1.512259863e-38
3.630924 -1.484200 -0.169680 1.512296016e-38
3.650356 -1.444507 -0.167969 1.337087886e-38
3.654667 -1.395117 -0.167898 1.263367115e-38
3.652403 -1.345887 -0.168795 1.235672553e-38
3.644671 -1.293373 -0.167778 1.198794161e-38
3.640708 -1.243996 -0.168787 1.171135612e-38
3.635397 -1.195215 -0.169054 1.161951922e-38
3.630600 -1.144330 -0.169508 1.152732359e-38
3.624736 -1.093426 -0.169818 1.152804386e-38
3.626156 -1.045753 -0.167842 1.180391048e-38
1.905862 -0.877837 -0.189396 8.319102606e-40
1.917133 -0.870648 -0.189868 8.326291267e-40
1.910000 -0.838421 -0.176450 9.244660242e-40
1.920284 -0.842112 -0.184028 8.326305280e-40
1.923723 -0.795946 -0.183568 8.326291267e-40
1.930167 -0.764835 -0.191609 8.322703943e-40
1.933000 -0.371225 -0.194325 1.189574598e-38
1.938241 -0.336125 -0.184184 1.005255505e-38
1.948920 -0.293455 -0.176102 4.981435273e-39
1.955326 -0.244542 -0.175867 2.676182992e-39
1.961333 -0.227303 -0.157720 8.577422169e-39
1.957817 -0.203044 -0.180981 2.307401873e-39
1.962978 -0.190427 -0.172145 3.229356771e-39
1.964122 -0.143638 -0.176974 2.123010614e-39
1.966698 -0.094626 -0.177459 2.308120740e-39
1.959000 -0.026328 -0.192455 1.938617953e-39
1.967321 -0.048073 -0.181632 2.215207645e-39
1.967750 -0.014375 -0.189349 2.030814984e-39
2.806286 0.082620 -0.165372 1.724345685e-38
2.813222 0.084373 -0.156655 1.862567663e-38
1.978236 0.413240 -0.187411 9.775261905e-39
1.983805 0.455770 -0.183080 4.704859594e-39
1.985237 0.506947 -0.182409 3.781459958e-39
2.010000 0.497058 -0.165399 1.032879582e-38
1.986148 0.554750 -0.181513 6.270381831e-39
2.035273 0.558618 -0.152583 2.064246882e-38
1.987340 0.605940 -0.183513 4.888166249e-39
1.985479 0.652864 -0.185806 3.875460460e-39
1.983722 0.690143 -0.191391 4.338955342e-39
3.544553 1.616429 -0.164630 2.295851250e-38
3.549618 1.656193 -0.169395 2.305070673e-38
3.554944 1.705484 -0.169701 2.305034800e-38
3.561000 1.723539 -0.152469 2.314254223e-38
3.556532 1.751958 -0.166022 2.305070673e-38
3.561818 1.768324 -0.180532 2.305070673e-38
3.560000 1.781653 -0.165514 2.314254363e-38
3.564536 1.805538 -0.167870 2.305034800e-38
3.560000 1.840883 -0.145771 7.828729419e-39
3.564054 1.851209 -0.168530 1.041306711e-38
3.409000 -1.521597 -0.103255 8.322703943e-40
3.414667 -1.521067 -0.120647 9.244646229e-40
3.407928 -1.504939 -0.113308 1.477995733e-39
3.419477 -1.497401 -0.120759 3.413029164e-39
3.485591 -1.504297 -0.120249 1.364638535e-38
3.540136 -1.512215 -0.118195 1.503004146e-38
3.585051 -1.501767 -0.119639 1.493784723e-38
3.633419 -1.485446 -0.120068 1.493820737e-38
3.648724 -1.443258 -0.118320 1.318684633e-38
3.650359 -1.393156 -0.118801 1.263331242e-38
3.648860 -1.346024 -0.118925 1.208013864e-38
3.646139 -1.295521 -0.119140 1.143512796e-38
3.639625 -1.243551 -0.119662 1.134257220e-38
3.634636 -1.194481 -0.120234 1.125109684e-38
3.629110 -1.143265 -0.119200 1.125037657e-38
3.622662 -1.093374 -0.117598 1.143512936e-38
3.619603 -1.043472 -0.119432 1.161952062e-38
3.623609 -1.011754 -0.108809 1.161952062e-38
3.526667 0.054407 -0.112873 6.547330255e-39
2.808583 0.082867 -0.108201 1.549210142e-38
2.811833 0.084347 -0.127692 1.816613902e-38
3.521000 0.127709 -0.098519 1.752005495e-38
2.841000 0.169335 -0.098397 1.309464930e-38
3.522000 0.136096 -0.098428 1.761225058e-38
2.845410 0.207880 -0.104350 1.484780400e-38
3.529750 0.218721 -0.101920 1.604636120e-38
2.851276 0.257142 -0.111393 1.475525104e-38
3.526778 0.256207 -0.097998 1.503184774e-38
2.851667 0.305267 -0.113403 1.457049965e-38
3.526609 0.312469 -0.103834 1.217305734e-38
2.849831 0.355392 -0.110867 1.355598478e-38
3.531467 0.355451 -0.104279 1.042061590e-38
2.846812 0.405068 -0.105023 1.189610331e-38
3.530407 0.407294 -0.103256 9.684125657e-39
2.845381 0.442886 -0.099797 1.309464930e-38
3.286000 0.480259 -0.127407 2.037955861e-38
3.526813 0.458814 -0.105316 9.684485791e-39
2.808500 0.515058 -0.135127 2.148554603e-38
2.815750 0.511586 -0.116620 2.157810039e-38
3.288648 0.504132 -0.114828 2.065578817e-38
3.504000 0.492683 -0.105586 1.964234810e-38
3.521250 0.486936 -0.106849 1.401840907e-38
2.050445 0.557495 -0.132976 1.804659845e-38
2.064000 0.550876 -0.122106 1.461809054e-38
3.284955 0.553162 -0.113804 2.065506650e-38
3.275000 0.580792 -0.100243 7.101948773e-39
3.537318 1.567901 -0.110020 2.286667701e-38
3.545849 1.606372 -0.118579 2.314218350e-38
3.548584 1.654639 -0.118644 2.323401899e-38
3.553156 1.705166 -0.117181 2.323437773e-38
3.554449 1.754660 -0.117242 2.323437773e-38
3.561000 1.773760 -0.140055 2.314254223e-38
3.557848 1.804685 -0.113817 2.295707337e-38
3.562595 1.808808 -0.121924 2.314218350e-38
3.558700 1.844907 -0.115136 8.846109939e-39
3.563216 1.857009 -0.117851 8.385479312e-39
3.407800 -1.534882 -0.060495 1.016660253e-39
3.413792 -1.528876 -0.065441 1.201050111e-39
3.408529 -1.503054 -0.069241 2.768017086e-39
3.421984 -1.497911 -0.070756 6.731352973e-39
3.482294 -1.503182 -0.069024 1.530554935e-38
3.538321 -1.510265 -0.069381 1.503004146e-38
3.585928 -1.499521 -0.070221 1.484565301e-38
3.629610 -1.483544 -0.070545 1.493820597e-38
3.646071 -1.445240 -0.070465 1.327832450e-38
3.649590 -1.394802 -0.068837 1.254111679e-38
3.647986 -1.344935 -0.069900 1.217233287e-38
3.643633 -1.293872 -0.069861 1.189574598e-38
3.638264 -1.242985 -0.070600 1.171135752e-38
3.632875 -1.194578 -0.071114 1.152732499e-38
3.628493 -1.146998 -0.070271 1.171135472e-38
3.621113 -1.094664 -0.069232 1.171135752e-38
3.616547 -1.044481 -0.069796 1.180355035e-38
3.618328 -0.997236 -0.067352 1.189574738e-38
3.635000 -0.967112 -0.053567 1.198902061e-38
3.529470 0.021198 -0.058335 4.059124446e-39
3.534429 0.049783 -0.069336 1.364747556e-38
2.804767 0.087408 -0.065878 1.493820597e-38
2.818789 0.114310 -0.061154 1.641405351e-38
3.529111 0.127946 -0.069861 1.724418692e-38
2.831691 0.155460 -0.067720 1.733565108e-38
3.529568 0.155880 -0.069816 1.705979566e-38
2.839774 0.205006 -0.069659 1.752004374e-38
3.529284 0.206133 -0.069851 1.641442485e-38
2.844338 0.254495 -0.071400 1.724381698e-38
3.528262 0.253657 -0.075356 1.503148760e-38
2.845769 0.304872 -0.075442 1.687467293e-38
3.523343 0.302938 -0.083983 1.300245647e-38
2.842837 0.355900 -0.071058 1.622930072e-38
3.529167 0.356889 -0.089407 1.032913633e-38
2.837697 0.406995 -0.069728 1.392512743e-38
3.525650 0.408661 -0.088899 9.684125657e-39
2.828936 0.456601 -0.068713 1.180354614e-38
3.276500 0.478753 -0.087308 2.074762506e-38
3.526628 0.460244 -0.083666 9.684485791e-39
2.807760 0.512185 -0.059475 2.157701719e-38
2.819590 0.499123 -0.070482 1.493892483e-38
3.283489 0.507907 -0.083928 2.093237225e-38
3.507500 0.493212 -0.091419 2.010404511e-38
3.519538 0.488604 -0.080671 1.659916924e-38
3.258000 0.577467 -0.045995 7.009751742e-39
3.284066 0.557796 -0.072100 2.047103537e-38
3.252750 0.624633 -0.049147 2.139407207e-38
3.276000 0.580988 -0.070913 7.103024970e-39
3.516500 1.478787 -0.051659 1.696759583e-38
3.528939 1.514860 -0.060235 2.295851250e-38
3.536521 1.556811 -0.067874 2.323401899e-38
3.543091 1.606332 -0.067902 2.332621322e-38
3.546156 1.655678 -0.068918 2.332585449e-38
3.549903 1.704368 -0.067965 2.332585449e-38
3.553699 1.754854 -0.067763 2.332585449e-38
3.556205 1.807005 -0.068048 2.258793072e-38
3.557387 1.848341 -0.075055 7.370616925e-39
3.561960 1.862476 -0.062989 8.015254856e-39
3.418222 -1.575568 -0.004390 1.569472497e-39
3.406384 -1.545731 -0.024377 2.583985960e-39
3.415317 -1.539508 -0.017588 4.520094188e-39
3.408375 -1.505848 -0.009837 9.590856633e-39
3.420551 -1.497824 -0.021065 9.774529026e-39
3.478053 -1.501286 -0.018626 1.549066228e-38
3.534500 -1.508039 -0.019926 1.521443833e-38
3.585286 -1.499102 -0.018583 1.475345878e-38
3.628067 -1.482998 -0.020527 1.475381471e-38
3.644506 -1.446056 -0.018408 1.309429197e-38
3.647194 -1.394603 -0.020412 1.254111539e-38
3.644045 -1.343339 -0.019604 1.217233287e-38
3.641147 -1.295248 -0.017735 1.180355035e-38
3.635205 -1.243738 -0.019303 1.161916049e-38
3.630306 -1.193559 -0.019408 1.152696346e-38
3.627243 -1.145522 -0.019520 1.161916049e-38
3.619909 -1.094548 -0.021330 1.161916189e-38
3.614730 -1.044543 -0.020622 1.161987936e-38
3.607833 -0.980958 -0.014619 1.189574738e-38
3.612864 -0.999565 -0.024580 1.171171485e-38
3.606419 -0.948310 -0.010911 1.198758568e-38
3.614556 -0.948727 -0.029484 1.207977991e-38
3.608000 -0.915437 0.001002 1.189539145e-38
3.527231 -0.032643 -0.002230 7.562558381e-39
3.535296 0.007476 -0.016677 1.346380316e-38
3.535730 0.049792 -0.018841 1.705943553e-38
2.043826 0.114055 -0.023228 9.683776734e-39
2.078250 0.122733 -0.023278 9.868169395e-39
2.802828 0.097818 -0.016144 1.761223797e-38
2.813826 0.119525 -0.027696 1.936395914e-38
3.527286 0.127893 -0.025413 1.733566369e-38
2.045650 0.143066 -0.022998 9.592662906e-39
2.112000 0.151850 -0.004822 1.134546027e-38
2.823800 0.156241 -0.019074 1.982529882e-38
3.530220 0.152559 -0.028095 1.733566229e-38
2.038000 0.203204 0.005157 4.337502195e-39
2.077500 0.208869 -0.008338 2.952771282e-39
2.835015 0.206450 -0.020801 2.000968868e-38
3.523538 0.193801 -0.038268 1.668993134e-38
2.096000 0.241665 0.003264 7.378516044e-39
2.840455 0.242684 -0.026112 1.807286159e-38
2.839291 0.366118 -0.023757 1.825724864e-38
2.835667 0.406671 -0.020515 1.604491086e-38
2.824355 0.456614 -0.019339 1.226524036e-38
2.805550 0.508339 -0.016773 1.899589548e-38
2.814212 0.492967 -0.023827 1.198865907e-38
3.266444 0.626135 -0.025175 2.166957996e-38
3.259000 0.656469 -0.035708 2.166993729e-38
3.278870 0.653620 -0.015010 2.176213292e-38
3.277846 0.698689 -0.003087 2.213055531e-38
3.267000 0.737299 0.000958 2.231494657e-38
3.522250 1.413300 -0.000910 2.314218350e-38
3.527423 1.460080 -0.013784 2.314218350e-38
3.534014 1.506070 -0.018516 2.323401759e-38
3.538684 1.556056 -0.018285 2.332585449e-38
3.542187 1.605717 -0.018026 2.332585449e-38
3.543787 1.654848 -0.018196 2.332585449e-38
3.547308 1.706133 -0.017289 2.332585449e-38
3.551053 1.756856 -0.017446 2.332621322e-38
3.554240 1.806677 -0.020035 2.286379874e-38
3.555156 1.850606 -0.021870 8.199655925e-39
3.563333 1.876736 -0.026932 7.923417959e-39
3.568000 1.882370 -0.037726 7.462797141e-39
3.428368 -1.634019 0.047382 9.037319917e-39
3.423594 -1.592025 0.033830 8.391951909e-39
3.407500 -1.520789 0.049336 9.775603822e-39
3.416038 -1.544669 0.030208 9.498658200e-39
3.409000 -1.516235 0.052234 9.775246491e-39
3.421512 -1.498211 0.031258 1.005219351e-38
3.482357 -1.501805 0.034235 1.549102242e-38
3.531808 -1.506558 0.029381 1.549102522e-38
3.581943 -1.498403 0.030572 1.475345738e-38
3.625207 -1.483662 0.031370 1.466161908e-38
3.641908 -1.444530 0.029988 1.300209634e-38
3.647593 -1.394786 0.028950 1.235672693e-38
3.643768 -1.344321 0.029470 1.207977851e-38
3.638766 -1.295276 0.030725 1.171135472e-38
3.634000 -1.244131 0.030117 1.143512656e-38
3.627986 -1.192150 0.031561 1.134293233e-38
3.625361 -1.145507 0.031883 1.152696486e-38
3.618260 -1.095143 0.031722 1.152732359e-38
3.610000 -1.022123 0.029909 1.162095695e-38
3.614493 -1.045409 0.029722 1.143548810e-38
3.607400 -0.990196 0.026661 1.171135612e-38
3.612095 -1.005903 0.037283 1.161987795e-38
3.603338 -0.944280 0.029192 1.189538865e-38
3.599454 -0.896529 0.030962 1.180355455e-38
3.612000 -0.887986 0.012955 1.198794301e-38
3.596158 -0.856354 0.044039 1.207977991e-38
3.534242 -0.090037 0.044544 1.540063026e-38
3.536923 -0.044720 0.032545 1.530771576e-38
3.538074 0.004996 0.031829 1.659845878e-38
2.040500 0.052028 0.043982 1.060608616e-38
3.535127 0.049783 0.031437 1.705907680e-38
2.052375 0.124506 0.039709 9.408987710e-39
2.798273 0.104186 0.030358 1.890261945e-38
2.811000 0.128306 0.014077 2.111567610e-38
2.045733 0.152843 0.029614 9.777773032e-39
2.084250 0.144797 0.028700 1.014619822e-38
2.111000 0.142897 0.017158 1.069901187e-38
2.808800 0.132473 0.045596 2.212911057e-38
2.822132 0.157472 0.030082 2.194543958e-38
2.049273 0.205966 0.015686 5.996306068e-39
2.063000 0.209894 0.022784 5.995225667e-39
2.836594 0.206293 0.030526 2.222202647e-38
2.846838 0.247411 0.036854 2.065505669e-38
2.858067 0.311346 0.053346 2.176212031e-38
2.846495 0.362305 0.035096 2.019407994e-38
2.839259 0.407667 0.030145 1.788846752e-38
3.519500 0.403186 0.051630 9.775246491e-39
2.824871 0.455786 0.030084 1.281769947e-38
2.800414 0.506346 0.030338 1.761295963e-38
2.812531 0.486346 0.030436 1.032877480e-38
3.285423 0.657146 0.031078 2.194652418e-38
3.286897 0.703674 0.030698 2.222275094e-38
3.284351 0.754404 0.033057 2.240714080e-38
3.282722 0.805667 0.036192 2.259117192e-38
3.281136 0.856533 0.035964 2.277484151e-38
3.285000 0.898237 0.037264 1.548239602e-38
3.315500 0.925984 0.046397 1.177334256e-38
3.474000 0.989747 0.048000 1.278173795e-38
3.504889 1.110115 0.050814 2.295851391e-38
3.504455 1.157844 0.050530 2.305070813e-38
3.508000 1.200254 0.050019 2.305070813e-38
3.510500 1.212317 0.050369 2.305070813e-38
3.506600 1.263443 0.044281 2.314254363e-38
3.514273 1.253954 0.049889 2.314254223e-38
3.508500 1.300267 0.033452 2.295851391e-38
3.516034 1.310050 0.044250 2.323401759e-38
3.508333 1.352878 0.016793 2.277520165e-38
3.519720 1.357978 0.036421 2.323401899e-38
3.526701 1.406650 0.031261 2.323401899e-38
3.528225 1.456207 0.030794 2.332585449e-38
3.532792 1.507133 0.031556 2.332585449e-38
3.536533 1.556149 0.030945 2.332585449e-38
3.538456 1.605075 0.031668 2.332585449e-38
3.540425 1.655575 0.032978 2.332585449e-38
3.544585 1.706669 0.031957 2.332585449e-38
3.549319 1.755278 0.030879 2.332585449e-38
3.550046 1.805376 0.030699 2.231098510e-38
3.555344 1.854859 0.028752 7.554645248e-39
3.561200 1.866986 0.026999 8.015259060e-39
3.443154 -1.690541 0.086729 9.129871477e-39
3.431459 -1.644767 0.081786 9.221352444e-39
3.422078 -1.594398 0.081422 9.406103838e-39
3.416545 -1.545424 0.079797 9.498299468e-39
3.407600 -1.502086 0.085257 9.498300869e-39
3.422304 -1.497407 0.079116 1.051209266e-38
3.492353 -1.503215 0.079619 1.549066228e-38
3.535131 -1.505940 0.079112 1.530699129e-38
3.587177 -1.495990 0.081523 1.456942345e-38
3.625467 -1.478380 0.077988 1.456906472e-38
3.641855 -1.444979 0.080840 1.300137887e-38
3.646654 -1.394356 0.081044 1.235672413e-38
3.641722 -1.342879 0.080339 1.180391188e-38
3.637167 -1.294600 0.079679 1.152696346e-38
3.629311 -1.244389 0.078001 1.143476783e-38
3.626028 -1.195150 0.080242 1.115890261e-38
3.620969 -1.144234 0.080538 1.125038077e-38
3.609000 -1.074798 0.092827 1.152696346e-38
3.616181 -1.095017 0.080968 1.143476783e-38
3.608421 -1.033045 0.086402 1.152696346e-38
3.612632 -1.047793 0.080784 1.143476923e-38
3.607619 -0.991937 0.084069 1.161916049e-38
3.612000 -1.006479 0.063265 1.143548810e-38
3.601221 -0.943609 0.080971 1.171135752e-38
3.597500 -0.893718 0.079538 1.180355035e-38
3.591273 -0.843569 0.078924 1.207978131e-38
3.587196 -0.797539 0.083167 1.226453130e-38
3.580528 -0.747645 0.091415 1.235672553e-38
3.575931 -0.694275 0.098447 1.254111539e-38
3.560000 -0.635508 0.091150 1.300173901e-38
3.566278 -0.646957 0.099009 1.290954338e-38
3.559000 -0.570436 0.102277 1.318613027e-38
3.562500 -0.596544 0.102819 1.309393464e-38
3.554333 -0.539742 0.096733 1.327832730e-38
3.556038 -0.495737 0.095971 1.364746715e-38
3.554333 -0.445634 0.095925 1.383257447e-38
3.551037 -0.394484 0.095422 1.401625527e-38
3.545481 -0.343161 0.094575 1.438503779e-38
3.544290 -0.290703 0.092943 1.475454058e-38
3.541293 -0.241037 0.093385 1.512332450e-38
3.539569 -0.192784 0.089608 1.539991139e-38
3.538227 -0.145183 0.083988 1.567650108e-38
3.538913 -0.095844 0.082360 1.613711910e-38
3.536926 -0.045380 0.082062 1.641406752e-38
3.536272 0.005018 0.081963 1.669065301e-38
2.766000 0.080682 0.073326 7.840217264e-39
3.533266 0.050120 0.081864 1.705943413e-38
2.792469 0.106615 0.078187 2.000896701e-38
2.037667 0.157966 0.060171 8.854020269e-39
2.079500 0.148127 0.058888 1.014583809e-38
2.809375 0.132496 0.086103 2.231314310e-38
2.823856 0.157114 0.079855 2.305034660e-38
2.843815 0.206207 0.080797 2.323401899e-38
2.855060 0.253704 0.076355 2.286667701e-38
2.862905 0.266449 0.098897 2.295851250e-38
2.858130 0.304775 0.065658 2.213055110e-38
2.865430 0.305865 0.090146 2.240641913e-38
3.520875 0.325393 0.093590 1.152732219e-38
2.855893 0.359047 0.067678 2.093164638e-38
2.865236 0.352413 0.092288 2.148446143e-38
3.524740 0.357372 0.081337 1.042097463e-38
2.851317 0.405945 0.078582 1.899553535e-38
2.861286 0.387431 0.100437 2.120823187e-38
3.526235 0.403257 0.082526 9.867440720e-39
2.831744 0.455604 0.077825 1.484672640e-38
3.519500 0.433800 0.098942 1.079119629e-38
2.799351 0.507054 0.070483 1.862675423e-38
2.816282 0.491509 0.080865 1.586123846e-38
3.287479 0.658196 0.079926 2.213055531e-38
3.291798 0.705417 0.080379 2.231494657e-38
3.287400 0.755302 0.080763 2.259117192e-38
3.287407 0.806413 0.080477 2.286667841e-38
3.285729 0.856182 0.079890 2.295851250e-38
3.288800 0.898295 0.081411 1.631251682e-38
3.312444 0.925019 0.079636 1.204992945e-38
3.485640 0.996455 0.078150 1.296324674e-38
3.508632 1.106360 0.070250 2.295887264e-38
3.511364 1.116523 0.083968 2.305070813e-38
3.508375 1.150484 0.063937 2.305070813e-38
3.513014 1.155062 0.080691 2.305070813e-38
3.509000 1.183074 0.063101 2.305070673e-38
3.512833 1.205683 0.079042 2.305070673e-38
3.519222 1.257470 0.079419 2.323437773e-38
3.520766 1.307055 0.079073 2.332585449e-38
3.523792 1.355889 0.080967 2.332585449e-38
3.528063 1.406450 0.080462 2.332585449e-38
3.528284 1.456519 0.080771 2.332585449e-38
3.530150 1.507382 0.080772 2.332585449e-38
3.531904 1.555684 0.081621 2.341768999e-38
3.537815 1.606584 0.082196 2.332585449e-38
3.539000 1.657617 0.082370 2.332585449e-38
3.540918 1.706640 0.082735 2.332585449e-38
3.545237 1.756464 0.078872 2.332585449e-38
3.548145 1.805428 0.079675 2.323366026e-38
3.551538 1.855857 0.078892 7.831232138e-39
3.446000 -1.775024 0.152651 8.761450492e-39
3.442270 -1.733298 0.135945 9.129871477e-39
3.437547 -1.696604 0.131108 9.129871477e-39
3.428823 -1.644367 0.130305 9.222069909e-39
3.424117 -1.593309 0.130303 9.405742303e-39
3.417740 -1.543566 0.129487 9.406103838e-39
3.408375 -1.490437 0.147293 9.590496499e-39
3.422084 -1.498674 0.128621 1.032770140e-38
3.493650 -1.504545 0.128012 1.521443412e-38
3.536239 -1.506026 0.130615 1.512259863e-38
3.585739 -1.494886 0.130565 1.438467346e-38
3.625309 -1.477728 0.129414 1.429248063e-38
3.640875 -1.445624 0.131817 1.281734495e-38
3.644750 -1.394852 0.130052 1.217233287e-38
3.641315 -1.343526 0.131287 1.171135472e-38
3.634514 -1.293469 0.131303 1.134257220e-38
3.627917 -1.244516 0.130249 1.115746067e-38
3.622823 -1.194064 0.129497 1.106490771e-38
3.618149 -1.143466 0.128608 1.106562658e-38
3.609750 -1.075068 0.144536 1.078939842e-38
3.615508 -1.095675 0.129146 1.115818234e-38
3.609313 -1.040339 0.135510 1.125037657e-38
3.611889 -1.047155 0.127040 1.125073670e-38
3.607452 -0.993626 0.130757 1.134257220e-38
3.611250 -1.012514 0.123276 1.134329106e-38
3.601971 -0.944378 0.128550 1.152696486e-38
3.597677 -0.893869 0.129687 1.152696346e-38
3.591582 -0.844262 0.129632 1.171135612e-38
3.588936 -0.793544 0.129928 1.189574738e-38
3.585473 -0.744156 0.129225 1.208013724e-38
3.581451 -0.693908 0.131057 1.226452990e-38
3.576454 -0.644056 0.131033 1.244856523e-38
3.571127 -0.594475 0.129450 1.272514932e-38
3.568380 -0.543717 0.128928 1.300173761e-38
3.559500 -0.487817 0.116456 1.355563446e-38
3.565583 -0.495271 0.130441 1.327832730e-38
3.558413 -0.447141 0.120329 1.374002151e-38
3.569160 -0.443469 0.142114 1.318648760e-38
3.555810 -0.394197 0.122862 1.392441417e-38
3.570231 -0.399842 0.147125 1.337052013e-38
3.552524 -0.344057 0.123789 1.420028500e-38
3.564667 -0.345591 0.148352 1.373930405e-38
3.548275 -0.292700 0.125061 1.438539512e-38
3.561667 -0.300054 0.147843 1.383185561e-38
3.547045 -0.243021 0.127502 1.466234355e-38
3.545241 -0.193503 0.128715 1.503040580e-38
3.572000 -0.176616 0.155260 1.447686909e-38
3.544508 -0.145873 0.127643 1.530735563e-38
3.570500 -0.139720 0.155002 1.429247923e-38
3.541254 -0.095957 0.127572 1.558430265e-38
3.568000 -0.094330 0.154573 1.484601034e-38
3.540365 -0.045475 0.127426 1.586125248e-38
3.569556 -0.046298 0.154840 1.521479566e-38
3.538905 0.004984 0.127191 1.622967206e-38
3.570833 0.010281 0.155059 1.549174268e-38
3.533821 0.052573 0.126355 1.659773852e-38
3.568714 0.049898 0.154696 1.558357958e-38
2.143000 0.123812 0.110972 8.300845088e-39
2.804667 0.142923 0.108510 8.667829742e-39
2.823778 0.162829 0.109163 1.714911022e-38
2.847878 0.207899 0.111819 1.917813295e-38
2.857250 0.249743 0.117031 1.410881384e-38
2.865536 0.260333 0.112334 2.203691634e-38
2.860000 0.282308 0.120049 3.657388992e-43
2.870765 0.304733 0.113817 1.797887089e-38
3.522600 0.325557 0.118923 1.134257360e-38
2.869000 0.350235 0.112577 1.761116597e-38
3.530446 0.357621 0.126487 8.853647524e-39
3.563334 0.357653 0.153773 4.520454321e-39
2.863083 0.406661 0.107636 2.240678066e-38
3.523790 0.405402 0.124594 8.761451894e-39
2.857750 0.440565 0.106553 2.222274813e-38
2.864000 0.456873 0.107822 2.203799814e-38
3.519200 0.433761 0.118373 1.254219439e-38
3.288812 0.660819 0.130139 2.222275094e-38
3.291000 0.704788 0.130201 2.240714080e-38
3.289670 0.755887 0.129961 2.268300742e-38
3.288340 0.806922 0.129718 2.286667701e-38
3.287237 0.856246 0.129329 2.305070813e-38
3.289543 0.898859 0.130159 1.649690668e-38
3.312000 0.924879 0.121885 1.195845969e-38
3.489654 0.997526 0.132854 1.324019516e-38
3.508526 1.109243 0.121313 2.305070813e-38
3.511971 1.114303 0.131801 2.305070813e-38
3.509000 1.131305 0.119493 2.305070813e-38
3.515038 1.156304 0.129023 2.305070673e-38
3.515753 1.206034 0.128929 2.314254223e-38
3.518531 1.257189 0.129391 2.323437773e-38
3.521853 1.306888 0.130617 2.332585449e-38
3.522444 1.355343 0.129145 2.332585449e-38
3.524141 1.405260 0.130604 2.341768999e-38
3.526358 1.455613 0.130681 2.332585449e-38
3.531720 1.506643 0.130917 2.332585449e-38
3.533128 1.554698 0.132465 2.332585449e-38
3.533119 1.605153 0.131620 2.314218350e-38
3.537135 1.656329 0.132862 2.323401899e-38
3.539920 1.704506 0.131820 2.323437773e-38
3.543810 1.756435 0.128535 2.332585449e-38
3.546105 1.805932 0.129085 2.249537636e-38
3.548714 1.855058 0.128055 7.924141029e-39
3.449429 -1.774036 0.168403 8.853288791e-39
3.440305 -1.740188 0.179327 9.037675847e-39
3.433014 -1.694024 0.180067 9.221349642e-39
3.430078 -1.647499 0.179383 9.221709776e-39
3.423713 -1.594816 0.178891 9.313906807e-39
3.417450 -1.542896 0.178286 9.314265539e-39
3.409000 -1.496576 0.202362 9.406463972e-39
3.420965 -1.496637 0.181208 1.023586591e-38
3.494125 -1.502586 0.180061 1.493784583e-38
3.535773 -1.503488 0.181476 1.503004286e-38
3.584343 -1.492764 0.179341 1.429319529e-38
3.622919 -1.477943 0.179551 1.410880123e-38
3.638220 -1.443963 0.180233 1.272550805e-38
3.642554 -1.394684 0.178400 1.207977851e-38
3.638113 -1.345318 0.179630 1.161880036e-38
3.633925 -1.294369 0.180979 8.570945367e-39
3.608000 -1.221979 0.198678 6.901341687e-39
3.622455 -1.243927 0.179684 6.533639569e-39
3.600941 -1.204310 0.193843 8.644789593e-39
3.627778 -1.199248 0.173281 8.739504757e-39
3.684200 -1.190960 0.191743 9.583299430e-39
3.637526 -1.142658 0.164378 9.866001586e-39
3.681226 -1.145078 0.188968 9.497220468e-39
3.637625 -1.094243 0.166536 9.775246491e-39
3.684640 -1.094665 0.192208 9.590496499e-39
3.632720 -1.045376 0.165694 9.959639152e-39
3.681000 -1.045476 0.191563 9.867083389e-39
3.627808 -0.994494 0.164853 1.032842167e-38
3.678115 -0.995645 0.191053 9.959637751e-39
3.623961 -0.943610 0.163969 1.051281153e-38
3.672520 -0.944106 0.190062 1.023622464e-38
3.608333 -0.895485 0.155762 1.051245700e-38
3.634120 -0.894212 0.170567 1.051317447e-38
3.673364 -0.894362 0.193671 1.014403041e-38
3.609375 -0.841342 0.161671 1.088231292e-38
3.641813 -0.848368 0.174852 1.079011729e-38
3.671526 -0.841626 0.191729 1.042097603e-38
3.608250 -0.803777 0.160046 1.134221347e-38
3.635200 -0.788549 0.171613 1.115818234e-38
3.672750 -0.794376 0.194079 1.042097603e-38
3.607400 -0.740529 0.161332 1.115997880e-38
3.641238 -0.743229 0.175434 1.106670558e-38
3.672790 -0.743759 0.195651 1.060464843e-38
3.605375 -0.691363 0.160985 1.152732359e-38
3.643429 -0.694743 0.178709 1.115890261e-38
3.675647 -0.694695 0.199566 1.060572743e-38
3.598375 -0.644011 0.159784 1.171135612e-38
3.640250 -0.643625 0.178564 1.161916189e-38
3.673294 -0.644595 0.198798 1.069756432e-38
3.594445 -0.594654 0.159110 1.189682498e-38
3.638074 -0.593971 0.178183 1.171207499e-38
3.670941 -0.594222 0.198719 1.088159685e-38
3.596555 -0.543704 0.159472 1.235708426e-38
3.640828 -0.543678 0.180668 1.180391048e-38
3.671333 -0.546141 0.199591 1.051317166e-38
3.590000 -0.494040 0.158347 1.272551085e-38
3.636719 -0.494900 0.179761 1.161916329e-38
3.672417 -0.493718 0.200273 7.655105737e-39
3.590111 -0.445646 0.158366 1.290989931e-38
3.636371 -0.443508 0.181533 9.775246491e-39
3.667286 -0.446132 0.200802 6.917539296e-39
3.589000 -0.394222 0.158176 1.281770228e-38
3.629273 -0.392664 0.186601 1.069720419e-38
3.589300 -0.340713 0.158801 1.272550945e-38
3.625741 -0.344550 0.187431 1.088195699e-38
3.597235 -0.293939 0.162623 1.161916049e-38
3.626288 -0.294846 0.190720 1.134257640e-38
3.589412 -0.244856 0.160938 1.207978271e-38
3.621889 -0.243465 0.189708 1.171207919e-38
3.586765 -0.195735 0.160816 1.198758708e-38
3.618458 -0.194278 0.189094 1.208050438e-38
3.601000 -0.142444 0.171369 1.060465263e-38
3.617370 -0.146594 0.190146 1.217269440e-38
3.601000 -0.092657 0.174547 1.088195839e-38
3.614683 -0.093647 0.190167 1.355599319e-38
3.603125 -0.047965 0.178976 1.189647325e-38
3.614625 -0.042003 0.188946 1.383294161e-38
3.601912 0.005110 0.179935 1.272659405e-38
3.614531 0.002137 0.186956 1.374146625e-38
3.603757 0.051252 0.185155 1.318829247e-38
3.612133 0.051571 0.182416 1.328084403e-38
3.579571 0.362178 0.162236 2.584706228e-39
3.267000 0.477246 0.204921 2.111604745e-38
3.264500 0.484492 0.204400 2.139263434e-38
3.267250 0.576725 0.197328 2.176213292e-38
3.273750 0.611438 0.195478 2.213055531e-38
3.289215 0.658149 0.182750 2.231494657e-38
3.290500 0.704675 0.181537 2.249933502e-38
3.288690 0.755628 0.181172 2.277484291e-38
3.288212 0.806659 0.180853 2.295851250e-38
3.287380 0.855461 0.181364 2.305034800e-38
3.289653 0.898347 0.180871 1.668201961e-38
3.314857 0.925781 0.174132 1.223576545e-38
3.488923 0.997504 0.180420 1.351641912e-38
3.507250 1.101220 0.188153 2.295887264e-38
3.513410 1.117246 0.174830 2.295887264e-38
3.514444 1.155516 0.178726 2.305070673e-38
3.515049 1.205761 0.178836 2.314254223e-38
3.519037 1.257391 0.179569 2.332585449e-38
3.518815 1.307389 0.179521 2.332585449e-38
3.521264 1.355762 0.179976 2.332585449e-38
3.525123 1.404844 0.180667 2.332585449e-38
3.525506 1.455209 0.180747 2.332585449e-38
3.528042 1.503856 0.181212 2.332585449e-38
3.531048 1.553789 0.182352 2.249717562e-38
3.533418 1.605518 0.181626 2.185216495e-38
3.534171 1.655996 0.182587 2.258972858e-38
3.537181 1.705104 0.181001 2.305034800e-38
3.543313 1.755289 0.178671 2.332585449e-38
3.543768 1.806394 0.178401 2.148050696e-38
3.544563 1.854505 0.178682 7.647558343e-39
3.440333 -1.734937 0.230906 9.129511343e-39
3.433903 -1.694549 0.228918 9.220992311e-39
3.430304 -1.644910 0.229631 9.221711177e-39
3.428989 -1.595267 0.231234 9.222428642e-39
3.419919 -1.545024 0.231571 9.314265539e-39
3.408800 -1.498757 0.225699 9.314265539e-39
3.421000 -1.495519 0.230087 1.023586591e-38
3.488591 -1.501097 0.233568 1.466054288e-38
3.536083 -1.503842 0.230006 1.475345598e-38
3.582716 -1.491445 0.230611 1.420063953e-38
3.620618 -1.477367 0.229756 1.401624687e-38
3.635778 -1.444285 0.229789 1.263295369e-38
3.642753 -1.395115 0.231051 1.198758288e-38
3.638493 -1.345580 0.229622 1.143476783e-38
3.638923 -1.296427 0.230989 8.294357077e-39
3.606353 -1.230069 0.225154 6.718400772e-39
3.625467 -1.250616 0.230716 6.168462591e-39
3.746143 -1.221813 0.243283 9.680168390e-39
3.598032 -1.205938 0.223658 8.741309630e-39
3.635900 -1.203259 0.234139 1.049626360e-38
3.680538 -1.208657 0.226606 9.761575423e-39
3.740367 -1.196297 0.232274 8.850772059e-39
3.763750 -1.180109 0.254349 2.398517102e-39
3.740491 -1.143468 0.230656 8.391951909e-39
3.762000 -1.161415 0.254013 2.121570079e-39
3.708000 -1.076402 0.208163 9.314268342e-39
3.739593 -1.096153 0.232944 8.208278114e-39
3.705375 -1.045941 0.207688 9.406105239e-39
3.737560 -1.044931 0.234425 8.300116413e-39
3.701222 -0.994362 0.206937 9.499019735e-39
3.733471 -0.993465 0.233369 8.300475146e-39
3.697125 -0.942929 0.206197 9.867800853e-39
3.729083 -0.942852 0.232836 8.392312043e-39
3.698308 -0.893165 0.210042 9.775606625e-39
