ply
format ascii 1.0
element vertex 1217
property float x
property float y
property float z
property uchar red
property uchar green
property uchar blue
end_header
3.589000 -0.812769 0.146787 123 130 123
3.599000 -0.812682 0.154178 120 127 119
3.601000 -0.818951 0.154517 119 129 120
3.589000 -0.804227 0.146787 123 130 123
3.600000 -0.807243 0.154348 120 127 120
3.601000 -0.801800 0.154517 121 128 121
3.592000 -0.796498 0.147290 123 128 122
3.605000 -0.794303 0.155196 119 124 118
3.593500 -0.785500 0.147542 119 124 117
3.606000 -0.780258 0.155366 121 128 120
3.592500 -0.773831 0.147374 119 126 118
3.605000 -0.774269 0.155196 122 129 121
3.591000 -0.764887 0.147122 124 131 123
3.603000 -0.765163 0.154857 124 132 124
3.590000 -0.756081 0.146954 125 132 124
3.601500 -0.753336 0.154602 120 130 121
3.586500 -0.743798 0.146367 123 131 123
3.598000 -0.743871 0.154008 120 132 122
3.584000 -0.734632 0.145947 124 134 125
3.596500 -0.734927 0.153754 123 135 125
3.585500 -0.726476 0.146199 123 133 124
3.600000 -0.727234 0.154348 122 134 124
3.601000 -0.721765 0.154517 124 134 126
3.590000 -0.716206 0.146954 124 133 125
3.600000 -0.710089 0.154348 126 133 126
3.602000 -0.716293 0.154687 125 135 127
3.585500 -0.703726 0.146199 126 133 126
3.597000 -0.703651 0.153839 126 133 126
3.583000 -0.694595 0.145779 126 133 126
3.595500 -0.694730 0.153584 128 135 128
3.582000 -0.685833 0.145612 130 137 130
3.594500 -0.683083 0.153414 127 134 126
3.581500 -0.674354 0.145528 127 134 126
3.594000 -0.674409 0.153330 128 135 127
3.591500 -0.665282 0.152905 127 134 127
3.589000 -0.653321 0.152481 126 133 126
3.586000 -0.644111 0.151972 123 130 123
3.588000 -0.636015 0.152311 128 135 128
3.589500 -0.624954 0.152566 130 137 129
3.586500 -0.612928 0.152057 131 138 130
3.584000 -0.603868 0.151633 130 137 129
3.585500 -0.595650 0.151887 129 138 129
3.585500 -0.584274 0.151887 131 141 132
3.582500 -0.572300 0.151378 127 137 128
3.584000 -0.564071 0.151633 134 144 136
3.586000 -0.555930 0.151972 136 143 136
3.587000 -0.544742 0.152142 136 143 135
3.587500 -0.533453 0.152227 136 143 135
3.588000 -0.525007 0.152311 139 146 139
3.583500 -0.515655 0.151548 139 146 139
3.578500 -0.503402 0.150699 138 144 139
3.577000 -0.494626 0.150445 135 141 137
3.579000 -0.489298 0.150784 136 142 138
3.581000 -0.483964 0.151124 137 143 139
3.581500 -0.475527 0.151208 138 144 142
3.578000 -0.460755 0.150615 140 146 142
3.581000 -0.466924 0.151124 140 146 144
3.579500 -0.452483 0.150869 141 148 141
3.580000 -0.444047 0.150954 143 150 143
3.580000 -0.432691 0.150954 142 149 141
3.581000 -0.438525 0.151124 143 150 143
3.577500 -0.423796 0.150530 144 151 144
3.580000 -0.412818 0.150954 145 152 145
3.580000 -0.404301 0.150954 147 154 147
3.578500 -0.395573 0.150699 147 153 149
3.564000 -0.379392 0.148239 145 151 147
3.575000 -0.386572 0.150105 146 152 148
3.564000 -0.373744 0.148239 146 152 148
3.566000 -0.365537 0.148578 146 153 147
3.565500 -0.354168 0.148493 149 155 150
3.564000 -0.342678 0.148239 150 156 152
3.565000 -0.334328 0.148409 152 158 154
3.563000 -0.325614 0.148069 150 156 153
3.560000 -0.313972 0.147560 150 156 152
3.561500 -0.302858 0.147815 149 156 149
3.562000 -0.294447 0.147899 152 159 152
3.559500 -0.285714 0.147475 153 160 153
3.559000 -0.274382 0.147390 152 158 154
3.558000 -0.263005 0.147221 153 159 155
3.554000 -0.254161 0.146542 154 160 156
3.554000 -0.245716 0.146542 153 159 155
3.556500 -0.234682 0.146966 157 163 159
3.557000 -0.223456 0.147051 158 164 160
3.556000 -0.214920 0.146881 159 165 163
3.556000 -0.206469 0.146881 155 161 159
3.553500 -0.195010 0.146457 152 158 154
3.553000 -0.183714 0.146372 152 158 154
3.553500 -0.172493 0.146457 156 162 158
3.572000 -0.176616 0.155260 157 163 159
3.552000 -0.163949 0.146203 154 160 156
3.572000 -0.159627 0.155260 157 163 159
3.551000 -0.155446 0.146033 158 164 161
3.571000 -0.153900 0.155088 159 165 163
3.550000 -0.144136 0.145863 157 163 161
3.570000 -0.145348 0.154916 158 164 162
3.551000 -0.132948 0.146033 158 164 162
3.571000 -0.134086 0.155088 154 160 158
3.550000 -0.124458 0.145863 150 156 154
3.569500 -0.122684 0.154831 150 156 153
3.549500 -0.115999 0.145778 160 166 164
3.568000 -0.114120 0.154573 158 164 160
3.549500 -0.104755 0.145778 163 169 165
3.569500 -0.105707 0.154831 161 167 162
3.549500 -0.093513 0.145778 162 168 165
3.569000 -0.091540 0.154745 160 166 162
3.571000 -0.097287 0.155088 163 170 163
3.565500 -0.082913 0.154145 163 169 165
3.566000 -0.074455 0.154230 161 170 165
3.550000 -0.068233 0.145863 164 173 170
3.551000 -0.062644 0.146033 166 175 174
3.569500 -0.066097 0.154831 163 172 169
3.551000 -0.054208 0.146033 165 174 173
3.571000 -0.054827 0.155088 165 172 168
3.549500 -0.042919 0.145778 166 175 174
3.570000 -0.043477 0.154916 166 172 170
3.569000 -0.034964 0.154745 165 171 169
3.568000 -0.026455 0.154573 167 174 172
3.550000 -0.012008 0.145863 169 178 175
3.570000 -0.018010 0.154916 170 179 176
3.552000 -0.003603 0.146203 173 182 178
3.550000 0.010482 0.145863 173 182 179
3.551000 0.004848 0.146033 174 183 180
3.571500 0.007442 0.155174 168 177 172
3.549000 0.016112 0.145693 177 183 181
3.570000 0.015947 0.154916 169 175 171
3.549000 0.024543 0.145693 174 180 180
3.571000 0.024431 0.155088 169 176 174
3.549000 0.032974 0.145693 169 178 177
3.569000 0.038586 0.154745 167 176 175
3.571000 0.032923 0.155088 170 179 178
3.568000 0.047070 0.154573 168 177 174
3.568000 0.055553 0.154573 171 177 175
3.568500 0.064041 0.154659 169 175 172
3.562000 0.346225 0.153544 44 54 45
3.565000 0.357825 0.154059 52 59 51
3.565000 0.366301 0.154059 51 58 50
3.539000 0.380330 0.149599 95 102 94
3.551000 0.376054 0.151657 66 73 65
3.561000 0.371516 0.153373 50 57 49
3.533000 0.385247 0.148569 75 82 74
3.279500 0.643139 0.148622 239 250 252
3.284000 0.649249 0.149465 239 250 252
3.288500 0.655376 0.150307 240 251 253
3.291500 0.663758 0.150870 242 252 254
3.292000 0.674160 0.150963 242 252 254
3.293000 0.684682 0.151150 243 253 255
3.291750 0.694682 0.150916 243 253 254
3.291500 0.704912 0.150869 244 254 255
3.289500 0.714715 0.153065 247 255 255
3.292000 0.715323 0.148391 246 254 255
3.289333 0.725813 0.151320 246 254 255
3.291000 0.722795 0.148204 246 254 255
3.290000 0.735404 0.150589 247 255 255
3.289333 0.746374 0.151321 246 254 255
3.291000 0.743369 0.148204 246 254 255
3.288250 0.755519 0.150261 246 255 255
3.288750 0.765927 0.150354 246 255 255
3.290000 0.776537 0.150589 248 255 255
3.289250 0.786618 0.150448 247 255 254
3.287000 0.796286 0.150027 249 255 255
3.286000 0.806282 0.149840 250 255 255
3.285000 0.816271 0.149652 250 255 255
3.286500 0.826961 0.149933 250 255 255
3.287500 0.837518 0.150121 250 255 255
3.286750 0.847574 0.149980 250 255 255
3.286000 0.857624 0.149841 250 255 255
3.286667 0.867235 0.149109 250 255 255
3.286000 0.875593 0.151123 250 255 255
3.285200 0.886644 0.149176 214 214 218
3.284000 0.897224 0.148610 187 183 188
3.287667 0.905209 0.151008 147 124 134
3.301000 0.916243 0.150068 131 74 89
3.310000 0.924247 0.146566 133 60 79
3.312000 0.924879 0.152117 132 59 79
3.476500 0.987801 0.152593 144 57 83
3.488000 0.996983 0.149111 145 44 75
3.496500 1.005238 0.150594 150 34 68
3.511000 1.098730 0.150346 250 255 255
3.514000 1.105345 0.150866 250 255 255
3.514500 1.113858 0.150953 250 255 255
3.516000 1.125513 0.151213 250 255 255
3.516000 1.136632 0.151213 250 255 255
3.513500 1.146829 0.150779 250 255 255
3.513000 1.157753 0.150693 250 255 255
3.514000 1.166460 0.150866 250 255 255
3.515000 1.176098 0.149187 250 255 254
3.515000 1.186287 0.151039 251 255 254
3.515000 1.197402 0.151039 251 255 254
3.515000 1.205739 0.151039 251 255 254
3.515500 1.214271 0.148347 252 255 254
3.516250 1.225684 0.148477 253 255 254
3.516500 1.236904 0.148520 253 255 254
3.516500 1.248024 0.148519 253 255 254
3.515500 1.255961 0.148347 253 255 254
3.516500 1.264707 0.148520 253 255 254
3.519000 1.275928 0.148023 253 255 254
3.521000 1.280461 0.152080 253 255 254
3.522000 1.286444 0.149468 253 255 254
3.522000 1.294800 0.149468 253 255 254
3.522500 1.306152 0.149554 253 255 254
3.523000 1.317507 0.149640 253 255 254
3.520000 1.330153 0.146339 253 255 254
3.522000 1.327295 0.150396 253 255 254
3.518000 1.337640 0.148778 254 254 254
3.518500 1.346202 0.148864 254 254 254
3.519500 1.354986 0.149036 254 254 254
3.520000 1.366338 0.149123 254 254 254
3.520000 1.377472 0.146339 254 254 254
3.522000 1.375575 0.152253 254 254 254
3.522667 1.385157 0.150513 254 254 254
3.523000 1.395523 0.149641 254 254 254
3.521500 1.405988 0.149382 254 254 254
3.522000 1.416427 0.148539 254 254 254
3.523667 1.424620 0.150685 254 254 254
3.524000 1.434994 0.149814 254 254 254
3.522750 1.445559 0.149598 254 254 254
3.521250 1.455998 0.149338 254 254 254
3.522500 1.464943 0.149554 254 254 254
3.525750 1.474848 0.150114 254 254 254
3.527667 1.485991 0.151375 254 253 254
3.529000 1.493143 0.150674 254 254 254
3.531000 1.496900 0.148226 254 254 254
3.529000 1.501520 0.153467 254 254 254
3.532667 1.507021 0.150375 253 255 254
3.534000 1.515126 0.151537 253 255 254
3.534500 1.523761 0.151623 253 255 254
3.534250 1.534824 0.151580 253 255 254
3.534000 1.545887 0.151537 253 255 254
3.533750 1.556947 0.151495 253 255 254
3.533667 1.567158 0.150548 251 255 254
3.533667 1.574614 0.152412 251 255 255
3.532750 1.584398 0.151322 249 254 254
3.532500 1.595451 0.151278 248 254 254
3.533500 1.604354 0.151451 250 255 255
3.536750 1.614433 0.152011 249 255 255
3.538000 1.626282 0.152228 250 255 255
3.536000 1.636428 0.151883 251 255 254
3.538000 1.645884 0.152227 253 255 254
3.539500 1.655084 0.152486 253 255 254
3.537000 1.664947 0.152054 253 255 254
3.536500 1.675876 0.151968 252 255 254
3.539500 1.685901 0.152486 252 255 254
3.539500 1.694306 0.152486 252 255 254
3.538000 1.704687 0.152228 251 255 254
3.539000 1.713640 0.149599 253 255 254
3.542500 1.723987 0.150199 253 255 254
3.541500 1.734645 0.150028 253 255 254
3.540000 1.747816 0.149770 253 255 254
3.541000 1.742774 0.149942 253 255 254
3.540000 1.753420 0.155374 253 255 254
3.541500 1.757073 0.150028 253 255 254
3.543000 1.766336 0.150285 253 255 254
3.544000 1.775322 0.150456 253 255 254
3.545500 1.787409 0.150714 253 255 254
3.544500 1.798057 0.150542 253 255 254
3.542000 1.807824 0.150113 253 254 255
3.542000 1.816236 0.150113 255 252 255
3.546000 1.827003 0.150799 171 157 172
3.549500 1.837494 0.148590 92 74 86
3.549500 1.845927 0.148590 90 76 75
3.547667 1.855137 0.149212 87 75 74
3.547000 1.866910 0.150971 79 71 64
3.548500 1.876241 0.148419 76 65 59
3.448000 -1.776260 0.161158 99 107 96
3.452000 -1.773292 0.161881 96 104 93
3.452000 -1.767851 0.161881 96 104 93
3.443500 -1.754490 0.160344 100 108 97
3.437500 -1.742697 0.161966 98 105 93
3.438000 -1.734878 0.162058 98 104 92
3.439000 -1.727359 0.159531 98 104 92
3.440333 -1.724551 0.163385 99 105 94
3.437750 -1.713068 0.162011 101 107 97
3.437000 -1.702693 0.160972 98 104 95
3.435000 -1.694289 0.162413 98 103 95
3.433500 -1.683489 0.161239 100 105 97
3.430500 -1.673617 0.160695 100 107 96
3.429000 -1.661939 0.157723 98 106 95
3.431667 -1.667096 0.161808 98 106 95
3.427500 -1.652971 0.157451 100 108 97
3.432500 -1.655873 0.163761 99 107 94
3.428000 -1.642466 0.160241 100 108 97
3.431000 -1.646898 0.163487 98 106 93
3.427000 -1.635597 0.159159 100 106 98
3.426000 -1.625135 0.159876 101 108 99
3.425250 -1.613923 0.159740 101 106 99
3.422500 -1.604283 0.159240 100 104 97
3.419000 -1.591546 0.158605 102 104 97
3.421000 -1.598052 0.158968 103 106 99
3.418000 -1.583814 0.159319 103 105 98
3.420000 -1.581343 0.156096 105 106 100
3.419000 -1.572716 0.161295 103 104 98
3.421000 -1.573824 0.156276 104 105 99
3.419000 -1.564645 0.161295 106 107 101
3.420000 -1.565197 0.156096 104 105 99
3.418250 -1.556164 0.158468 104 106 100
3.417000 -1.544725 0.158241 105 107 101
3.416750 -1.533836 0.158196 101 107 100
3.417333 -1.524294 0.159198 102 109 101
3.415000 -1.514084 0.160564 102 109 101
3.412000 -1.504428 0.160016 103 110 102
3.483000 -1.500974 0.156488 160 167 160
3.508500 -1.508646 0.158231 164 169 164
3.515500 -1.506702 0.159464 164 170 164
3.526500 -1.506784 0.161402 166 172 168
3.537500 -1.504024 0.160540 164 170 166
3.549500 -1.501714 0.159833 164 170 168
3.561000 -1.501904 0.161837 161 167 165
3.410500 -1.492901 0.159743 101 108 100
3.450000 -1.489307 0.161519 161 168 161
3.479000 -1.498901 0.161271 162 169 162
3.566000 -1.498778 0.159882 160 166 164
3.577500 -1.498896 0.159039 158 164 160
3.587750 -1.495498 0.160807 154 161 155
3.596000 -1.491054 0.162229 153 160 153
3.604000 -1.489301 0.160749 154 161 154
3.415667 -1.483984 0.158893 104 110 103
3.437500 -1.488219 0.161967 119 126 118
3.449000 -1.488787 0.155903 161 168 161
3.608000 -1.485548 0.158569 154 161 155
3.615000 -1.483252 0.159764 152 159 151
3.623000 -1.481420 0.161128 156 163 155
3.627333 -1.475848 0.162830 154 163 155
3.633000 -1.471866 0.159948 155 164 155
3.635000 -1.464166 0.160287 142 152 143
3.636000 -1.455975 0.160457 144 151 143
3.637500 -1.445123 0.160711 139 146 138
3.639000 -1.437155 0.160966 137 144 136
3.641000 -1.434239 0.157444 137 144 136
3.643250 -1.424674 0.158789 134 141 133
3.645250 -1.414012 0.159127 132 139 131
3.645000 -1.403266 0.158118 133 138 131
3.643000 -1.394619 0.159712 131 136 130
3.642250 -1.383655 0.158620 131 136 130
3.642500 -1.372181 0.158662 129 134 128
3.643000 -1.363715 0.158747 130 135 128
3.641500 -1.354357 0.158494 129 134 127
3.639000 -1.344562 0.160966 124 131 123
3.638500 -1.335661 0.160881 124 131 123
3.639000 -1.321414 0.160966 129 134 127
3.640000 -1.327638 0.161135 122 129 121
3.639000 -1.315626 0.160966 125 130 123
3.634500 -1.305010 0.160202 124 128 121
3.630000 -1.294416 0.162324 105 107 100
3.630000 -1.288645 0.162324 79 71 67
3.631000 -1.283299 0.162494 75 61 58
3.633000 -1.275483 0.159948 79 66 63
3.629500 -1.259585 0.162238 65 43 39
3.631000 -1.265982 0.162494 61 38 34
3.627500 -1.252986 0.161897 61 37 33
3.625250 -1.243410 0.161513 62 38 32
3.624500 -1.234461 0.161385 62 33 29
3.624000 -1.225618 0.161300 64 31 28
3.621750 -1.213193 0.160916 76 31 35
3.620000 -1.203860 0.160618 93 39 47
3.624000 -1.199700 0.164180 99 31 42
3.625333 -1.196388 0.160569 87 45 48
3.631000 -1.190942 0.165380 92 39 45
3.627000 -1.186481 0.158929 85 53 55
3.630000 -1.179007 0.159438 108 90 86
3.631000 -1.173625 0.159608 110 105 101
3.633000 -1.165738 0.159948 105 105 100
3.633500 -1.154379 0.160032 106 108 102
3.632000 -1.145144 0.159778 107 110 103
3.629500 -1.135541 0.159354 109 113 106
3.629500 -1.124001 0.159354 110 116 106
3.630000 -1.112647 0.159438 110 116 107
3.628000 -1.103258 0.159099 107 114 106
3.624500 -1.093335 0.158505 104 111 103
3.631000 -1.092813 0.165380 110 117 109
3.626667 -1.083553 0.162719 108 115 107
3.620000 -1.077317 0.157742 106 113 105
3.625000 -1.073352 0.161474 106 113 105
3.624333 -1.065435 0.160400 105 112 104
3.631000 -1.063952 0.165380 108 115 107
3.627333 -1.054966 0.162833 108 115 107
3.620000 -1.042805 0.157742 109 116 108
3.626000 -1.044891 0.162604 109 116 108
3.618000 -1.033487 0.157402 108 115 107
3.624000 -1.032679 0.164180 109 116 108
3.617000 -1.024521 0.157233 109 116 108
3.624000 -1.024040 0.164180 112 119 112
3.617000 -1.015902 0.157233 111 118 111
3.623500 -1.012353 0.164094 111 118 111
3.615500 -1.003905 0.156978 114 121 113
3.623000 -1.003547 0.164008 110 117 109
3.617000 -0.992913 0.160108 116 123 116
3.621000 -0.997123 0.163665 110 117 109
3.615333 -0.983743 0.158867 115 122 115
3.621000 -0.985615 0.163665 113 120 113
3.614500 -0.974859 0.156808 114 121 114
3.622000 -0.974433 0.163837 114 121 113
3.614500 -0.963376 0.156808 114 121 113
3.622500 -0.965962 0.163922 115 122 114
3.617000 -0.952688 0.160108 116 123 115
3.621000 -0.956846 0.163665 112 119 111
3.615000 -0.945351 0.158810 114 121 113
3.614250 -0.934589 0.159639 114 121 113
3.614500 -0.923183 0.159682 114 121 114
3.617000 -0.913422 0.161067 117 123 117
3.610000 -0.901720 0.156045 114 120 116
3.615000 -0.906108 0.159767 114 120 115
3.607500 -0.892368 0.155620 115 121 117
3.615500 -0.894776 0.162722 113 121 116
3.613500 -0.882694 0.162379 114 122 117
3.612000 -0.873642 0.162121 121 128 121
3.610000 -0.861586 0.161778 119 126 119
3.612000 -0.867905 0.162121 122 129 122
3.609500 -0.852842 0.161692 118 128 119
3.608000 -0.843815 0.161435 119 129 120
3.609500 -0.835644 0.161692 118 128 119
3.609500 -0.824180 0.161692 118 128 118
3.608500 -0.812439 0.161521 121 128 120
3.609000 -0.803979 0.161607 128 135 128
3.613000 -0.799329 0.162293 123 130 123
3.614000 -0.793859 0.162464 119 126 119
3.607000 -0.786251 0.155536 122 127 120
3.616000 -0.785780 0.162807 123 130 123
3.614000 -0.773767 0.162464 124 131 124
3.611000 -0.764377 0.161950 121 131 122
3.609000 -0.752395 0.161607 120 132 122
3.612000 -0.758899 0.162121 122 132 123
3.607000 -0.743291 0.161263 121 133 123
3.606000 -0.734449 0.161092 121 133 123
3.608000 -0.729220 0.161435 122 134 124
3.611000 -0.724230 0.161950 124 134 126
3.609000 -0.712273 0.161607 119 129 121
3.611000 -0.718494 0.161950 123 133 125
3.606500 -0.703076 0.161178 126 135 127
3.604000 -0.693893 0.160749 128 135 128
3.605000 -0.685544 0.160920 124 133 124
3.603500 -0.673749 0.160663 127 134 127
3.603000 -0.665053 0.160577 126 133 126
3.598500 -0.655460 0.159805 130 137 130
3.596500 -0.643592 0.159462 124 131 124
3.598000 -0.632500 0.159720 127 134 127
3.598000 -0.623934 0.159720 126 136 127
3.596000 -0.614944 0.159377 127 137 128
3.594500 -0.603215 0.159119 128 138 129
3.597000 -0.592318 0.159548 131 141 132
3.593000 -0.582945 0.158862 128 138 129
3.591000 -0.573994 0.158519 131 141 132
3.595500 -0.563476 0.159291 133 143 135
3.598000 -0.552544 0.159720 130 140 132
3.596000 -0.543598 0.159377 131 141 133
3.597500 -0.535316 0.159634 137 144 136
3.595500 -0.523532 0.159291 136 143 135
3.592000 -0.514341 0.158690 136 143 136
3.588000 -0.505083 0.158004 136 145 137
3.588000 -0.493697 0.158004 138 144 139
3.591500 -0.482905 0.158605 140 146 143
3.593000 -0.474607 0.158862 141 147 145
3.591500 -0.465808 0.158605 138 144 142
3.590000 -0.454168 0.158347 141 148 141
3.591000 -0.442932 0.158519 141 148 140
3.589000 -0.434077 0.158176 147 154 146
3.588500 -0.425459 0.158090 137 144 136
3.590000 -0.417141 0.158347 135 142 134
3.592000 -0.411738 0.158690 137 144 137
3.590000 -0.400052 0.158347 138 145 138
3.592000 -0.406038 0.158690 139 146 139
3.588000 -0.394074 0.158004 137 144 137
3.587000 -0.385397 0.157833 140 147 140
3.587500 -0.374080 0.157918 143 150 142
3.589000 -0.362894 0.158176 139 146 139
3.588000 -0.354224 0.158004 139 146 139
3.587000 -0.345560 0.157833 142 149 142
3.587000 -0.334178 0.157833 141 147 143
3.584500 -0.322502 0.157404 147 154 148
3.583000 -0.313799 0.157147 141 148 141
3.584000 -0.305385 0.157318 147 154 147
3.584500 -0.294070 0.157404 146 153 146
3.583000 -0.282540 0.157147 146 152 147
3.583000 -0.274015 0.157147 150 156 152
3.580000 -0.262352 0.156632 148 154 150
3.582000 -0.268231 0.156975 151 157 153
3.577500 -0.253596 0.156203 147 153 149
3.577000 -0.242203 0.156117 147 153 149
3.576000 -0.233605 0.155946 158 164 160
3.575500 -0.225057 0.155860 152 158 154
3.574000 -0.213593 0.155603 153 159 156
3.574500 -0.202299 0.155688 155 161 157
3.574000 -0.193759 0.155603 146 153 146
3.573500 -0.185222 0.155517 151 157 152
3.573000 -0.171022 0.155431 159 165 161
3.596500 -0.175496 0.165171 109 115 111
3.573000 -0.165357 0.155431 155 161 157
3.597000 -0.152693 0.165258 115 121 119
3.597000 -0.144129 0.165258 112 118 116
3.597000 -0.135564 0.165258 115 121 119
3.596000 -0.124093 0.165084 109 115 112
3.594000 -0.112578 0.164737 112 119 113
3.594000 -0.104023 0.164737 108 115 108
3.594000 -0.095467 0.164737 117 124 117
3.591500 -0.083959 0.164304 110 116 111
3.593000 -0.072614 0.164564 119 128 124
3.594000 -0.064096 0.164737 105 114 109
3.595500 -0.055587 0.164997 120 129 124
3.594000 -0.044132 0.164737 123 129 125
3.594000 -0.032724 0.164737 111 117 113
3.595000 -0.024189 0.164911 106 115 110
3.573000 -0.012401 0.155431 167 176 173
3.597000 -0.018521 0.165258 113 122 117
3.574000 -0.003918 0.155603 166 175 170
3.596000 0.007182 0.165084 116 125 120
3.595000 0.015751 0.164911 112 121 116
3.594500 0.024312 0.164824 115 124 120
3.594500 0.035721 0.164824 115 124 121
3.593000 0.047128 0.164564 109 120 114
3.594000 0.055686 0.164737 108 117 112
3.594500 0.064246 0.164824 113 120 114
3.574000 0.344595 0.161269 45 57 47
3.579000 0.350768 0.162136 29 39 30
3.584000 0.356959 0.163003 26 36 27
3.584500 0.365540 0.163090 22 30 22
3.570000 0.378154 0.160576 22 29 21
3.581000 0.373690 0.162483 30 37 29
3.280000 0.643248 0.156401 239 250 252
3.283667 0.647467 0.160517 240 251 253
3.288500 0.655376 0.160586 243 253 255
3.291500 0.663758 0.161158 242 252 254
3.292000 0.674160 0.161254 243 253 255
3.292000 0.684450 0.161253 244 254 255
3.291500 0.694624 0.161158 244 254 255
3.290000 0.707125 0.163443 244 254 255
3.291333 0.704015 0.160269 244 254 255
3.289250 0.714655 0.160728 245 255 255
3.289333 0.724100 0.159888 246 255 255
3.291000 0.727939 0.163635 247 255 255
3.291500 0.735779 0.161159 246 254 255
3.289500 0.748130 0.160777 247 255 255
3.291000 0.743369 0.161063 246 254 255
3.288750 0.755648 0.160633 247 255 255
3.289500 0.766123 0.160776 247 255 255
3.289667 0.777305 0.161665 248 255 255
3.291000 0.774230 0.158491 248 255 255
3.289000 0.786551 0.160680 249 255 255
3.288000 0.796558 0.160490 250 255 255
3.288000 0.806834 0.160490 250 255 255
3.286750 0.816760 0.160251 250 255 255
3.288000 0.827386 0.160490 250 255 255
3.289000 0.837092 0.161538 250 255 255
3.289000 0.845658 0.160680 250 255 255
3.289000 0.854225 0.159824 250 255 255
3.289500 0.863796 0.160777 250 255 255
3.288000 0.873627 0.160490 250 255 255
3.285833 0.885811 0.160076 219 221 224
3.284500 0.895668 0.159821 185 185 190
3.285500 0.901110 0.160012 185 179 186
3.291000 0.907960 0.161063 128 103 115
3.304000 0.917185 0.158379 130 76 94
3.316500 0.926300 0.160742 135 61 84
3.479000 0.988600 0.161271 143 55 79
3.487500 0.996823 0.160039 147 47 74
3.497000 1.005400 0.158967 145 36 65
3.500000 1.006370 0.165029 147 37 66
3.510500 1.098554 0.158583 250 255 255
3.513000 1.106841 0.159949 249 255 255
3.515000 1.114963 0.158450 250 255 255
3.517250 1.125964 0.159772 250 255 255
3.517250 1.137087 0.159772 250 255 255
3.513000 1.146645 0.159023 250 255 255
3.512667 1.156704 0.159890 250 255 254
3.514333 1.164733 0.158332 250 255 254
3.515750 1.175454 0.159508 250 255 254
3.514500 1.186096 0.159288 251 255 254
3.514500 1.197210 0.159288 251 255 254
3.515500 1.205933 0.159464 252 255 254
3.517000 1.214857 0.159728 253 255 254
3.517500 1.226177 0.159816 253 255 254
3.517250 1.237202 0.159772 253 255 254
3.518000 1.245846 0.159905 253 255 254
3.518250 1.254291 0.159949 253 255 254
3.518500 1.265522 0.159993 253 255 254
3.519500 1.277061 0.160169 253 255 254
3.520000 1.285617 0.163040 253 255 254
3.521000 1.286030 0.157649 253 255 254
3.519500 1.293758 0.162952 253 255 254
3.521000 1.294384 0.157649 253 255 254
3.520000 1.305101 0.163040 253 255 254
3.521500 1.305732 0.157736 253 255 254
3.521500 1.316871 0.160521 253 254 254
3.520000 1.330153 0.163040 254 254 254
3.522000 1.327295 0.159681 253 254 254
3.518667 1.337000 0.160949 254 254 254
3.518667 1.344420 0.159095 254 254 254
3.519500 1.354986 0.160169 253 254 254
3.520000 1.363555 0.160257 253 254 254
3.521000 1.369563 0.160433 253 254 254
3.524000 1.376462 0.160962 253 254 254
3.527000 1.386163 0.161490 253 254 254
3.528000 1.397772 0.161667 253 254 254
3.525333 1.406796 0.160268 254 254 254
3.525667 1.414384 0.162185 254 254 254
3.526000 1.424763 0.161314 254 254 254
3.526000 1.435919 0.161314 254 254 254
3.525250 1.446725 0.161182 254 254 254
3.522750 1.456703 0.160742 254 254 254
3.522500 1.464943 0.160698 254 254 254
3.524750 1.474372 0.161093 254 254 254
3.525500 1.485882 0.161225 254 254 254
3.526667 1.496671 0.162361 253 254 254
3.528333 1.504919 0.160794 253 255 254
3.529667 1.514874 0.162890 253 255 254
3.532000 1.519740 0.159576 253 255 254
3.531500 1.525083 0.162282 253 255 254
3.533333 1.533440 0.161674 253 255 254
3.534000 1.546818 0.161790 252 255 254
3.533250 1.556697 0.162590 252 255 254
3.532500 1.567500 0.162459 249 254 254
3.532500 1.575886 0.162459 246 252 252
3.532500 1.584271 0.162459 241 247 247
3.530000 1.596957 0.164811 241 247 247
3.531333 1.593919 0.161322 242 248 248
3.532250 1.606502 0.162414 243 249 249
3.537000 1.617361 0.160452 248 254 254
3.538000 1.626283 0.160628 250 255 255
3.537000 1.636956 0.160452 251 255 255
3.538000 1.645884 0.160628 250 254 253
3.539500 1.655084 0.160891 252 255 254
3.537000 1.664947 0.160453 253 255 254
3.536000 1.675605 0.160277 251 255 255
3.539000 1.685629 0.160803 251 255 255
3.540000 1.694579 0.160978 250 255 255
3.540000 1.705786 0.160978 251 255 254
3.541000 1.714745 0.158351 251 255 254
3.544500 1.725098 0.158961 253 255 254
3.543250 1.735623 0.158743 253 255 254
3.542250 1.746280 0.158569 253 255 254
3.541333 1.757912 0.159343 253 255 254
3.542500 1.766051 0.158612 253 255 254
3.543500 1.775036 0.158787 253 255 254
3.544750 1.786977 0.159004 253 255 254
3.543500 1.797478 0.158786 252 254 254
3.542333 1.807084 0.157649 253 254 254
3.543333 1.815147 0.159692 254 252 255
3.546000 1.827003 0.159222 169 154 168
3.548500 1.836903 0.159657 94 75 87
3.547500 1.844738 0.159483 86 71 73
3.547250 1.855824 0.159440 85 73 73
3.547500 1.864401 0.159484 80 71 65
3.549000 1.870923 0.156935 88 77 73
3.551666 1.876280 0.161148 82 71 67
3.449000 -1.774161 0.172210 94 101 93
3.451000 -1.775394 0.167139 97 104 96
3.449000 -1.766007 0.172210 95 102 94
3.451000 -1.767236 0.167139 99 106 98
3.442750 -1.754032 0.168344 98 105 95
3.437000 -1.742393 0.169996 96 102 92
3.438000 -1.737586 0.170180 94 100 90
3.440000 -1.733381 0.170549 95 101 91
3.441000 -1.725855 0.170734 100 106 96
3.437500 -1.712919 0.170088 101 107 96
3.434500 -1.703008 0.172240 99 105 93
3.431750 -1.693265 0.171729 98 104 94
3.428000 -1.682944 0.173732 101 107 97
3.431000 -1.684715 0.168889 97 103 93
3.429000 -1.678135 0.173919 98 104 94
3.430333 -1.675319 0.170566 99 105 95
3.434333 -1.665046 0.172208 101 107 97
3.436500 -1.655487 0.172610 98 106 93
3.429000 -1.640344 0.171219 100 107 95
3.434000 -1.648631 0.172147 97 105 92
3.426000 -1.633224 0.170663 101 109 96
3.420667 -1.622986 0.168777 99 107 95
3.424400 -1.615054 0.170905 99 107 95
3.426333 -1.602851 0.169827 100 107 99
3.430000 -1.608517 0.174105 100 107 99
3.421000 -1.592668 0.169737 101 108 100
3.416667 -1.583070 0.169829 100 106 98
3.417250 -1.574433 0.167697 101 105 98
3.420000 -1.570579 0.172242 98 103 96
3.418000 -1.564094 0.166491 103 105 100
3.420000 -1.565197 0.172242 99 104 98
3.417750 -1.555889 0.169134 101 105 100
3.416000 -1.544179 0.168809 99 104 97
3.417750 -1.534377 0.169133 100 107 99
3.417750 -1.523622 0.169133 103 111 101
3.416000 -1.514618 0.168809 98 107 97
3.415750 -1.506423 0.168763 100 108 99
3.504000 -1.504473 0.169436 162 169 162
3.511000 -1.504387 0.166997 166 173 166
3.523000 -1.504990 0.171930 162 168 164
3.536500 -1.503514 0.168761 165 171 167
3.549500 -1.501714 0.171076 163 169 165
3.561000 -1.501904 0.170301 161 167 163
3.414500 -1.495015 0.168532 102 110 102
3.441000 -1.490047 0.170734 121 128 121
3.451000 -1.489827 0.169860 161 167 160
3.477500 -1.498124 0.169235 160 167 160
3.566000 -1.498778 0.168361 161 167 164
3.576000 -1.498143 0.170122 159 165 161
3.585000 -1.494127 0.171707 155 161 156
3.593000 -1.489566 0.170266 154 161 154
3.413500 -1.486431 0.168346 106 113 105
3.422000 -1.485514 0.169922 101 107 99
3.603250 -1.486068 0.169201 153 160 153
3.615750 -1.480745 0.171380 153 160 151
3.626000 -1.474238 0.170286 153 164 155
3.634000 -1.469462 0.165895 150 160 151
3.633667 -1.465449 0.169689 143 154 145
3.636250 -1.456094 0.169172 142 149 141
3.637250 -1.445005 0.169345 138 145 137
3.639000 -1.437155 0.169646 134 141 133
3.640000 -1.431839 0.169819 133 140 132
3.643250 -1.424673 0.170380 135 142 134
3.645750 -1.414244 0.170811 133 140 132
3.644000 -1.404738 0.170509 133 140 132
3.641500 -1.394898 0.170078 135 139 132
3.639000 -1.385072 0.172540 129 134 127
3.640000 -1.385527 0.166924 132 137 130
3.639000 -1.379285 0.169646 130 135 128
3.640000 -1.373949 0.169819 127 133 126
3.641750 -1.366051 0.170120 128 135 127
3.640750 -1.354023 0.169948 127 134 126
3.639000 -1.344562 0.169646 129 134 127
3.638500 -1.335661 0.169560 125 133 125
3.638500 -1.324089 0.169560 124 130 123
3.637000 -1.314760 0.169300 122 127 120
3.632750 -1.304257 0.168568 121 126 117
3.630000 -1.294416 0.170979 91 88 79
3.632000 -1.286609 0.171326 62 36 32
3.633500 -1.275694 0.168698 62 32 29
3.630000 -1.259793 0.170979 59 26 21
3.632000 -1.266401 0.171326 57 26 21
3.627000 -1.252779 0.170459 60 25 21
3.625500 -1.243514 0.170199 67 25 21
3.623000 -1.233847 0.172644 72 23 20
3.619500 -1.223789 0.174910 76 24 23
3.622500 -1.225008 0.169679 77 22 22
3.618000 -1.214556 0.171771 83 24 27
3.617750 -1.205833 0.171728 98 32 38
3.628000 -1.201293 0.170633 105 29 41
3.640000 -1.200281 0.172713 98 31 38
3.646000 -1.196858 0.173754 93 38 43
3.655000 -1.194591 0.175314 100 60 60
3.634500 -1.183653 0.165981 99 70 68
3.639000 -1.176736 0.166753 106 97 90
3.640000 -1.171336 0.166924 107 102 98
3.641500 -1.163229 0.167182 109 106 101
3.641000 -1.154351 0.167096 106 107 101
3.638500 -1.144718 0.166667 108 110 103
3.637000 -1.132583 0.166410 110 113 104
3.638000 -1.124280 0.166581 107 113 103
3.637000 -1.115234 0.166410 105 112 102
3.635000 -1.102935 0.166067 104 111 103
3.655000 -1.101524 0.175314 109 114 107
3.655000 -1.095708 0.175314 107 112 106
3.655000 -1.084074 0.175314 109 116 109
3.654000 -1.074995 0.175141 107 114 106
3.654000 -1.063365 0.175141 107 114 106
3.654000 -1.054643 0.175141 109 116 108
3.651500 -1.045058 0.174707 109 116 109
3.648000 -1.032241 0.174100 111 117 112
3.648000 -1.023535 0.174100 112 119 111
3.647000 -1.014493 0.173927 109 116 108
3.645000 -1.005124 0.173580 109 116 108
3.644500 -0.996261 0.173494 114 121 113
3.645500 -0.984993 0.173667 111 118 110
3.648000 -0.974203 0.174100 111 118 110
3.647000 -0.965177 0.173927 111 118 110
3.643000 -0.955205 0.173233 112 119 111
3.639000 -0.942359 0.172540 116 123 115
3.639000 -0.933678 0.172540 119 126 118
3.642000 -0.925922 0.173060 115 122 115
3.644000 -0.914947 0.173407 110 118 112
3.641000 -0.905347 0.172887 110 119 114
3.637500 -0.895614 0.172280 114 123 118
3.634500 -0.883159 0.171760 115 123 117
3.633000 -0.874051 0.171500 116 126 118
3.633000 -0.865387 0.171500 118 128 119
3.634000 -0.854122 0.171673 116 126 117
3.634500 -0.842707 0.171760 118 128 119
3.635000 -0.834179 0.171846 116 126 117
3.635000 -0.825509 0.171846 118 125 118
3.635500 -0.814086 0.171933 118 125 118
3.637500 -0.803064 0.172280 121 128 121
3.640000 -0.795055 0.172713 119 126 119
3.639000 -0.786107 0.172540 121 127 122
3.636000 -0.773753 0.172020 124 132 124
3.635000 -0.764822 0.171846 119 129 120
3.633500 -0.755771 0.171586 120 130 121
3.632500 -0.743966 0.171413 120 130 121
3.634000 -0.732786 0.171673 123 133 124
3.635000 -0.724365 0.171846 123 132 127
3.632000 -0.714970 0.171326 118 127 122
3.629500 -0.702826 0.170893 121 130 125
3.628000 -0.693819 0.170633 124 134 125
3.628000 -0.685169 0.170633 122 132 123
3.628000 -0.673635 0.170633 127 134 127
3.626000 -0.664533 0.170286 130 136 132
3.623000 -0.655219 0.169766 127 134 127
3.623000 -0.643703 0.169766 129 135 128
3.623000 -0.632188 0.169766 128 136 128
3.621000 -0.623126 0.169419 126 136 127
3.620000 -0.614285 0.169245 127 137 128
3.622500 -0.603297 0.169679 129 139 130
3.622000 -0.594561 0.169592 127 137 128
3.618000 -0.585123 0.168899 127 137 128
3.617000 -0.576302 0.168725 130 140 131
3.621000 -0.571341 0.169419 131 141 133
3.625000 -0.563486 0.170112 129 139 132
3.624000 -0.554653 0.169939 128 139 131
3.621000 -0.545449 0.169419 130 140 132
3.622000 -0.534126 0.169592 135 142 134
3.619000 -0.524948 0.169072 132 139 131
3.616500 -0.515876 0.168639 136 143 135
3.613000 -0.503771 0.168032 134 141 134
3.615000 -0.492635 0.168379 136 142 138
3.618000 -0.484528 0.168899 136 142 140
3.619000 -0.476072 0.169072 137 143 141
3.616500 -0.464166 0.168639 137 144 138
3.615000 -0.452437 0.168379 138 145 138
3.615000 -0.443823 0.168379 125 132 124
3.613500 -0.434980 0.168118 95 102 94
3.615000 -0.423722 0.168379 103 110 102
3.615500 -0.412311 0.168465 107 114 107
3.614000 -0.403481 0.168205 109 116 109
3.612000 -0.394590 0.167858 107 114 107
3.611500 -0.383047 0.167772 109 116 108
3.612000 -0.374510 0.167858 109 117 106
3.614500 -0.366230 0.168292 107 114 106
3.613500 -0.354621 0.168118 108 115 107
3.611500 -0.342894 0.167772 108 115 108
3.611000 -0.334229 0.167685 109 115 111
3.610000 -0.322641 0.167512 106 113 106
3.611000 -0.328493 0.167685 112 118 114
3.610000 -0.314041 0.167512 108 115 108
3.610000 -0.302574 0.167512 110 117 110
3.610000 -0.293974 0.167512 111 118 111
3.609500 -0.285322 0.167425 105 111 106
3.607500 -0.273654 0.167078 110 116 112
3.606000 -0.264913 0.166818 109 115 111
3.604500 -0.256180 0.166558 110 116 112
3.603000 -0.244595 0.166298 113 119 115
3.600000 -0.230032 0.165778 112 118 114
3.602000 -0.235925 0.166124 111 117 113
3.621000 -0.231867 0.175173 106 113 106
3.599000 -0.224231 0.165604 110 116 112
3.619500 -0.223110 0.174910 104 111 104
3.598000 -0.215579 0.165431 111 117 114
3.618000 -0.214360 0.174647 104 110 106
3.599000 -0.204235 0.165604 105 111 108
3.619000 -0.205816 0.174822 104 110 106
3.599500 -0.192847 0.165691 116 123 117
3.619500 -0.194355 0.174910 104 111 104
3.598000 -0.184167 0.165431 107 113 109
3.617500 -0.182709 0.174559 105 111 107
3.616000 -0.173985 0.174296 105 112 105
3.598000 -0.164178 0.165431 112 118 114
3.617500 -0.165467 0.174559 100 107 100
3.609000 -0.150576 0.173070 105 111 107
3.619000 -0.156941 0.174822 107 114 107
3.608000 -0.144785 0.172895 108 114 110
3.609500 -0.136276 0.173157 106 112 108
3.608000 -0.124731 0.172895 103 109 105
3.605000 -0.113124 0.172369 103 109 104
3.605000 -0.104536 0.172369 103 110 103
3.604500 -0.095928 0.172281 104 111 104
3.604500 -0.084481 0.172281 106 116 109
3.605500 -0.073071 0.172456 109 118 113
3.608000 -0.064568 0.172895 109 118 113
3.606500 -0.055927 0.172632 112 122 115
3.604500 -0.044419 0.172281 112 122 115
3.604500 -0.032970 0.172281 110 119 114
3.606000 -0.024418 0.172544 109 118 115
3.598000 -0.012829 0.165431 114 123 118
3.609000 -0.015882 0.173070 110 119 114
3.598500 -0.004270 0.165518 114 124 118
3.609000 -0.001554 0.173070 110 120 112
3.611000 -0.007316 0.173420 107 118 112
3.607000 0.007065 0.172719 114 123 117
3.605000 0.015672 0.172369 112 121 116
3.604500 0.024261 0.172281 114 124 119
3.604500 0.035707 0.172281 113 124 118
3.604500 0.047154 0.172281 113 124 118
3.604000 0.055736 0.172194 109 120 114
3.606000 0.064336 0.172544 111 122 114
3.285250 0.646959 0.170231 241 251 253
3.290000 0.655709 0.168584 244 254 255
3.291000 0.655930 0.173921 242 252 254
3.291000 0.663645 0.171350 242 252 254
3.291000 0.673932 0.171350 243 253 255
3.290000 0.686558 0.168584 242 252 254
3.291000 0.683362 0.172207 243 253 255
3.289667 0.695049 0.170234 244 254 255
3.291000 0.691934 0.173921 243 253 255
3.289000 0.704314 0.170961 245 255 255
3.289000 0.714595 0.170961 244 254 255
3.290000 0.722550 0.168584 246 255 255
3.291333 0.726306 0.172272 246 255 255
3.292250 0.735966 0.171593 245 255 255
3.290000 0.748258 0.171155 247 255 255
3.291000 0.743369 0.171350 246 254 255
3.289250 0.755777 0.171009 247 255 255
3.289000 0.765992 0.170960 247 255 255
3.287250 0.775808 0.170620 249 255 255
3.287000 0.786014 0.170571 250 255 255
3.287250 0.796354 0.170620 249 254 254
3.287750 0.806765 0.170717 249 255 255
3.288500 0.817250 0.170864 249 255 255
3.288250 0.827457 0.170815 250 255 255
3.287000 0.837374 0.170571 250 255 255
3.286000 0.847356 0.170376 250 255 255
3.287000 0.855351 0.170571 250 255 255
3.288250 0.863426 0.170814 250 255 255
3.288750 0.873852 0.170912 250 255 255
3.286500 0.886012 0.170474 219 221 224
3.283000 0.897770 0.169793 186 184 190
3.288500 0.907180 0.170863 124 99 112
3.305000 0.917499 0.168905 127 75 96
3.317000 0.926458 0.171218 131 58 85
3.478000 0.988281 0.169325 147 55 80
3.489000 0.997305 0.171325 146 45 69
3.501000 1.006693 0.170739 145 35 64
3.508000 1.097672 0.169232 250 255 255
3.512000 1.107412 0.169952 250 255 255
3.514500 1.116636 0.170401 250 255 255
3.515500 1.125332 0.170581 250 255 255
3.516000 1.136631 0.170671 250 255 255
3.512500 1.146461 0.170042 250 255 255
3.512000 1.154605 0.169952 250 255 254
3.515000 1.164056 0.170492 251 255 254
3.516500 1.175737 0.170761 251 255 254
3.514000 1.185904 0.170312 251 255 254
3.513000 1.196632 0.170132 250 255 254
3.514500 1.205545 0.170401 251 255 254
3.516750 1.214759 0.170806 252 255 254
3.516750 1.225881 0.170806 253 255 254
3.517000 1.237103 0.170851 253 255 254
3.518000 1.245846 0.171031 253 255 254
3.520000 1.254998 0.168607 253 255 254
3.521000 1.255402 0.174355 253 255 254
3.519250 1.265826 0.171256 253 255 254
3.517250 1.276135 0.170896 253 255 254
3.517250 1.287260 0.170896 253 255 254
3.517500 1.295707 0.170941 253 255 254
3.518500 1.304471 0.171121 253 255 254
3.519000 1.315812 0.171211 253 254 254
3.519500 1.327155 0.171301 253 254 254
3.519000 1.335289 0.171211 254 254 254
3.519750 1.343962 0.171346 254 254 254
3.520000 1.352421 0.168607 253 255 254
3.521000 1.356569 0.172499 253 255 254
3.522250 1.367330 0.171796 253 255 254
3.525000 1.376906 0.172290 253 255 254
3.528000 1.386610 0.170039 253 255 254
3.527000 1.397322 0.172649 253 255 254
3.529000 1.406598 0.170218 253 255 254
3.529000 1.414973 0.170218 254 254 254
3.527500 1.425451 0.169949 254 254 254
3.526333 1.435144 0.171600 254 254 254
3.528000 1.445217 0.170039 254 254 254
3.527500 1.453356 0.169949 254 254 254
3.525500 1.463573 0.169592 254 254 254
3.524000 1.474014 0.172111 254 254 254
3.523500 1.484924 0.172020 254 254 254
3.525500 1.497037 0.172380 253 254 254
3.527000 1.506131 0.169860 253 255 254
3.529000 1.515480 0.170218 253 255 254
3.532000 1.525329 0.170755 253 255 254
3.533333 1.535304 0.169129 252 255 254
3.533000 1.544456 0.169069 250 255 254
3.532000 1.556069 0.170755 249 255 255
3.531500 1.566995 0.170665 230 235 238
3.531000 1.575123 0.170576 227 232 235
3.532500 1.584271 0.170844 228 234 234
3.531500 1.594936 0.170665 236 242 242
3.531500 1.606113 0.170665 242 248 247
3.534500 1.616059 0.168405 245 251 250
3.535500 1.624973 0.168583 248 253 253
3.535000 1.635901 0.168493 250 254 253
3.537000 1.645354 0.168849 250 255 254
3.539750 1.655218 0.169339 250 255 254
3.538750 1.665887 0.169162 250 255 254
3.537500 1.676415 0.168940 250 255 255
3.538333 1.687134 0.170021 250 255 255
3.537000 1.695738 0.168849 250 255 255
3.537333 1.705253 0.167976 250 255 255
3.538500 1.713364 0.169117 250 255 255
3.541000 1.720351 0.172365 251 255 254
3.543000 1.725200 0.168983 251 255 254
3.543750 1.735903 0.170052 253 255 254
3.543750 1.747124 0.170052 253 255 254
3.542500 1.754834 0.169830 253 255 254
3.543000 1.763531 0.169918 253 254 254
3.542750 1.774607 0.169874 253 254 254
3.543750 1.786401 0.170052 253 255 254
3.543500 1.797478 0.170008 252 254 254
3.544000 1.806185 0.170096 253 254 255
3.545000 1.815187 0.170275 254 252 255
3.538000 1.830694 0.171828 87 69 85
3.544000 1.825824 0.170096 169 153 170
3.537000 1.835701 0.171649 92 75 85
3.542500 1.836159 0.167025 89 71 82
3.539000 1.842489 0.172007 87 73 73
3.542500 1.847377 0.169830 85 72 73
3.545667 1.855814 0.169457 81 70 72
3.548000 1.864701 0.170808 76 66 64
3.549000 1.870923 0.173797 81 71 69
3.551333 1.876078 0.170464 77 66 62
3.446000 -1.769594 0.177086 96 104 93
3.446000 -1.764164 0.177086 96 104 93
3.441500 -1.755976 0.178958 99 107 95
3.438250 -1.745862 0.178350 97 105 93
3.439000 -1.738193 0.175782 97 105 94
3.440000 -1.733381 0.175968 99 105 95
3.441000 -1.725856 0.178865 99 106 94
3.438667 -1.712714 0.179331 98 105 92
3.440000 -1.717124 0.175968 101 107 95
3.436000 -1.703902 0.180635 100 106 94
3.431500 -1.693117 0.182488 98 104 94
3.428667 -1.685137 0.181054 98 104 95
3.428000 -1.677547 0.179129 98 104 94
3.430333 -1.675319 0.183169 102 106 99
3.432600 -1.665117 0.182156 101 105 97
3.436500 -1.652781 0.180729 97 105 93
3.430500 -1.641208 0.182301 96 104 92
3.425500 -1.632937 0.181355 100 108 95
3.418500 -1.623541 0.180032 102 110 97
3.418500 -1.618162 0.180032 99 108 95
3.425250 -1.613919 0.181308 99 108 95
3.433000 -1.610211 0.180070 99 107 96
3.432000 -1.604242 0.179882 102 109 101
3.426000 -1.595472 0.181450 99 106 97
3.418000 -1.582021 0.179041 102 110 101
3.420000 -1.586725 0.183006 99 107 96
3.418000 -1.574850 0.179937 102 109 101
3.421000 -1.571132 0.180505 98 104 96
3.421667 -1.564321 0.181529 102 109 99
3.418333 -1.555313 0.179103 100 106 98
3.416000 -1.544180 0.179559 101 108 97
3.415000 -1.532888 0.179368 102 110 98
3.414667 -1.522859 0.178410 102 111 99
3.413667 -1.515160 0.180011 99 109 98
3.414750 -1.505891 0.179321 101 109 99
3.482000 -1.500456 0.183795 162 167 161
3.499000 -1.503739 0.178670 163 169 164
3.506000 -1.501814 0.179955 165 171 167
3.520000 -1.503451 0.185308 163 169 165
3.521000 -1.503964 0.179924 166 172 168
3.537250 -1.503896 0.180092 162 168 164
3.551000 -1.502474 0.182591 163 169 165
3.561000 -1.501904 0.178765 162 168 164
3.414250 -1.494883 0.179227 103 110 102
3.443000 -1.491091 0.179240 118 123 116
3.456000 -1.492428 0.181674 162 167 161
3.478000 -1.498383 0.177560 162 167 161
3.564500 -1.498023 0.179394 161 167 163
3.575667 -1.496083 0.182349 159 165 161
3.583000 -1.493129 0.179881 154 161 154
3.413000 -1.486168 0.178990 103 108 101
3.421500 -1.485252 0.180597 106 111 104
3.595750 -1.488073 0.179308 151 158 151
3.603000 -1.483086 0.180599 152 159 152
3.614333 -1.481009 0.181659 151 158 151
3.625500 -1.473996 0.178842 154 163 155
3.632000 -1.465608 0.179987 147 154 146
3.635750 -1.455854 0.180648 140 147 139
3.638000 -1.448254 0.181044 139 146 138
3.640500 -1.443653 0.181485 133 140 132
3.641750 -1.435557 0.181706 136 143 135
3.644000 -1.425024 0.182101 134 141 133
3.645500 -1.414128 0.182365 134 141 133
3.644000 -1.404738 0.182101 131 137 129
3.641500 -1.394898 0.181661 133 138 131
3.640000 -1.382632 0.181397 131 136 129
3.640000 -1.373949 0.181397 130 137 129
3.640500 -1.365490 0.181484 128 135 127
3.638500 -1.350127 0.181132 126 133 125
3.640000 -1.356582 0.181397 128 135 127
3.637000 -1.343677 0.180867 126 133 125
3.636500 -1.334782 0.180779 124 131 123
3.635500 -1.322781 0.180604 124 130 122
3.634000 -1.313460 0.180340 120 127 119
3.630000 -1.300186 0.182520 118 128 119
3.631333 -1.304608 0.178908 117 124 114
3.630000 -1.294416 0.179635 83 85 75
3.632000 -1.289497 0.179987 64 45 40
3.633500 -1.284359 0.180251 79 50 47
3.635000 -1.276325 0.180516 91 61 56
3.629500 -1.259585 0.179547 64 27 21
3.631500 -1.266191 0.179899 63 29 22
3.626000 -1.252364 0.178930 66 26 22
3.623333 -1.243580 0.177500 68 25 21
3.620000 -1.232619 0.180749 75 30 25
3.621000 -1.238782 0.180927 71 28 22
3.617500 -1.222976 0.180307 85 33 32
3.608000 -1.210520 0.184354 98 38 40
3.613000 -1.212538 0.179510 92 34 33
3.606000 -1.203986 0.183996 100 35 41
3.613000 -1.203929 0.179510 98 33 38
3.627000 -1.200894 0.179106 102 29 38
3.647000 -1.203055 0.179729 99 30 35
3.658000 -1.201591 0.181657 98 37 44
3.674000 -1.202050 0.184460 101 62 63
3.608000 -1.199060 0.184354 100 30 40
3.660000 -1.190728 0.176181 105 87 77
3.664000 -1.183541 0.176875 109 102 95
3.665000 -1.175176 0.177048 108 103 97
3.663500 -1.165850 0.176788 105 104 99
3.661500 -1.153428 0.176441 105 105 99
3.660000 -1.144121 0.176181 101 104 95
3.660000 -1.135382 0.176181 106 110 102
3.679000 -1.133680 0.185337 103 108 101
3.658500 -1.123176 0.175921 103 110 101
3.676000 -1.123786 0.184811 104 109 101
3.656000 -1.113524 0.175488 107 113 103
3.674000 -1.114272 0.184460 106 111 104
3.656000 -1.107706 0.175488 102 107 100
3.677000 -1.106580 0.184986 105 110 104
3.656000 -1.090250 0.175488 109 116 109
3.678000 -1.095224 0.185161 105 112 105
3.676000 -1.085724 0.184811 104 111 104
3.674000 -1.076236 0.184460 107 114 106
3.676000 -1.065230 0.184811 107 114 106
3.675000 -1.053175 0.184636 108 115 107
3.671000 -1.043023 0.183935 108 113 106
3.670500 -1.034084 0.183847 109 114 108
3.669000 -1.024810 0.183584 109 114 108
3.667500 -1.015545 0.183321 107 114 106
3.667500 -1.003864 0.183321 109 116 108
3.668000 -0.995269 0.183409 110 117 109
3.670000 -0.990080 0.183759 111 118 110
3.671000 -0.984560 0.183935 111 118 110
3.671500 -0.975952 0.184022 111 118 110
3.667000 -0.965747 0.183234 112 119 111
3.663500 -0.955885 0.182620 111 118 110
3.661000 -0.943438 0.182182 114 121 113
3.664000 -0.932707 0.182708 112 119 111
3.665000 -0.924263 0.182883 114 121 114
3.664500 -0.915361 0.182796 111 121 113
3.659000 -0.904957 0.181832 112 121 116
3.657000 -0.895627 0.181481 115 124 119
3.655000 -0.883399 0.181131 116 125 120
3.656500 -0.872200 0.181394 112 122 114
3.658000 -0.863902 0.181657 117 127 118
3.658500 -0.855311 0.181744 115 125 116
3.657500 -0.843383 0.181569 118 126 116
3.659000 -0.835068 0.181832 116 123 115
3.660000 -0.829520 0.182007 115 122 114
3.661000 -0.823969 0.182182 118 125 118
3.660500 -0.815092 0.182095 116 123 116
3.660000 -0.803304 0.182007 118 125 118
3.658000 -0.794035 0.181657 117 124 117
3.656500 -0.784909 0.181394 120 127 120
3.655000 -0.772882 0.181131 119 126 119
3.657000 -0.764668 0.181481 121 128 120
3.657000 -0.755937 0.181481 121 128 120
3.655500 -0.743923 0.181218 118 128 119
3.655000 -0.735073 0.181131 122 132 124
3.654000 -0.726105 0.180956 117 126 121
3.651500 -0.713875 0.180517 120 129 124
3.650000 -0.704804 0.180255 119 129 121
3.649000 -0.695858 0.180079 122 132 124
3.649000 -0.684247 0.180079 123 130 123
3.648000 -0.672409 0.179904 124 131 124
3.647000 -0.663479 0.179729 123 130 123
3.646000 -0.654555 0.179554 126 132 127
3.646000 -0.642955 0.179554 126 133 126
3.646000 -0.634255 0.179554 129 136 129
3.644000 -0.625131 0.179203 125 135 127
3.643500 -0.613433 0.179116 128 138 129
3.645000 -0.605049 0.179378 128 138 130
3.644500 -0.596250 0.179291 126 136 128
3.643000 -0.584356 0.179028 127 137 129
3.645500 -0.573256 0.179466 126 135 127
3.645000 -0.564461 0.179378 131 138 131
3.644333 -0.554672 0.181195 130 137 130
3.642750 -0.543748 0.181883 131 139 132
3.644500 -0.532478 0.182191 131 140 132
3.642667 -0.525385 0.180902 132 140 132
3.637500 -0.513849 0.178064 132 140 134
3.642500 -0.514734 0.184734 127 137 130
3.637000 -0.502192 0.177977 133 139 137
3.642500 -0.503146 0.184734 129 135 131
3.639000 -0.493859 0.178327 136 142 140
3.644000 -0.494712 0.185000 129 135 131
3.643000 -0.485850 0.181928 133 139 136
3.639000 -0.470711 0.178327 137 143 139
3.643000 -0.475227 0.182892 132 138 133
3.638000 -0.464762 0.178152 138 145 138
3.641500 -0.462432 0.184557 138 145 137
3.636500 -0.455847 0.177889 133 140 132
3.641000 -0.453665 0.184468 124 131 123
3.635500 -0.444126 0.177714 112 119 111
3.640500 -0.444901 0.184380 112 119 111
3.636000 -0.432641 0.177801 85 92 84
3.640500 -0.433322 0.184380 84 91 83
3.636500 -0.424043 0.180782 113 120 112
3.632500 -0.414787 0.180076 107 114 106
3.629500 -0.402811 0.176662 97 104 97
3.631000 -0.403024 0.182697 120 127 119
3.630000 -0.394226 0.176750 98 105 97
3.632000 -0.394504 0.182875 115 122 114
3.630000 -0.385570 0.176750 100 107 99
3.632500 -0.385912 0.182963 107 117 108
3.630000 -0.376915 0.176750 100 107 99
3.631333 -0.373244 0.180832 104 112 104
3.633250 -0.362908 0.180208 106 113 105
3.633000 -0.354212 0.180164 103 110 102
3.629000 -0.342170 0.176575 99 106 99
3.631333 -0.346304 0.180832 109 116 109
3.629250 -0.333546 0.179504 105 112 105
3.629000 -0.324864 0.176575 93 100 93
3.631000 -0.322212 0.182697 102 109 101
3.629500 -0.316268 0.176662 96 103 96
3.632000 -0.313666 0.182875 104 111 103
3.629000 -0.304674 0.176575 99 106 99
3.631500 -0.304950 0.182786 105 112 104
3.629000 -0.292175 0.178498 101 108 101
3.631000 -0.296236 0.182697 105 112 105
3.628000 -0.284380 0.179284 106 113 106
3.626500 -0.275578 0.179019 106 112 106
3.626250 -0.264025 0.178976 107 114 107
3.624500 -0.252334 0.178667 109 115 109
3.624000 -0.243648 0.178579 109 115 111
3.624000 -0.235969 0.179539 113 120 115
