ply
format ascii 1.0
element vertex 1713
property float x
property float y
property float z
end_header
-3.425495 3.131087 0.170335
-3.396352 3.127375 0.169455
-3.379006 3.134366 0.169162
-3.355813 3.135813 0.168575
-3.297546 3.133523 0.166961
-3.258032 3.128600 0.165787
-3.237924 3.132183 0.165347
-3.214971 3.132871 0.164760
-3.180822 3.130595 0.163807
-3.150820 3.135350 0.163146
-3.132481 3.136748 0.162706
-3.096927 3.135429 0.161753
-3.343033 3.143601 0.168428
-3.077103 3.146516 0.161533
-3.054412 3.146300 0.160946
3.182734 3.148588 0.164320
3.199956 3.142503 0.164614
-0.482918 3.170689 0.174541
-0.303478 3.180828 0.173889
-0.905975 3.188897 0.180410
-0.473055 3.184290 0.175193
-0.456935 3.190674 0.175410
-0.439684 3.189069 0.175193
-0.422667 3.195392 0.175410
-0.400663 3.196213 0.175302
-0.371875 3.189643 0.174758
-0.348484 3.192284 0.174758
-0.325934 3.186635 0.174323
-0.276191 3.195336 0.174541
-0.247115 3.189708 0.174106
-0.225679 3.195300 0.174323
-0.135087 3.196413 0.174106
-0.079840 3.198270 0.174106
-0.034619 3.199079 0.174106
3.199486 3.188448 0.165787
-0.383794 3.204322 0.175628
-0.361974 3.206860 0.175628
-0.340559 3.213222 0.175845
-0.315820 3.203707 0.175193
-0.294006 3.205783 0.175193
-0.260096 3.204705 0.174976
-0.236892 3.210509 0.175193
-0.214500 3.204076 0.174758
-0.197840 3.207145 0.174867
-0.180935 3.206147 0.174758
-0.164146 3.207047 0.174758
-0.147351 3.207866 0.174758
-0.119632 3.209014 0.174758
-0.096946 3.209781 0.174758
-0.063341 3.210619 0.174758
-0.017919 3.207200 0.174541
0.003918 3.209245 0.174649
0.020789 3.219169 0.175193
0.038364 3.209016 0.174649
0.060273 3.212675 0.174867
0.082885 3.208177 0.174649
0.100120 3.221675 0.175410
0.116634 3.211124 0.174867
0.139323 3.210218 0.174867
0.155382 3.211486 0.174976
0.201515 3.220927 0.175628
0.225120 3.219363 0.175628
0.258500 3.212848 0.175410
0.280710 3.214993 0.175628
0.326939 3.218651 0.176062
0.373327 3.221642 0.176497
0.407042 3.217556 0.176497
0.509784 3.215018 0.177149
0.753917 3.211820 0.179540
0.778382 3.210089 0.179757
0.803117 3.216342 0.180410
3.193420 3.205818 0.166081
-0.046691 3.222892 0.175410
0.168190 3.230838 0.176062
0.179808 3.226212 0.175845
0.192342 3.237492 0.176497
0.213847 3.228137 0.176062
0.241574 3.224173 0.175954
0.269923 3.227941 0.176280
0.298644 3.225407 0.176280
0.316307 3.231753 0.176714
0.345060 3.228805 0.176714
0.362407 3.230927 0.176932
0.384390 3.228386 0.176932
0.397194 3.234884 0.177366
0.419204 3.232105 0.177366
0.437780 3.235682 0.177693
0.459225 3.228674 0.177475
0.482613 3.229301 0.177693
0.524347 3.241000 0.178671
0.540844 3.230183 0.178236
0.558589 3.227168 0.178236
0.575674 3.230244 0.178562
0.599223 3.230022 0.178779
0.628341 3.226523 0.178888
0.652659 3.233917 0.179540
0.674657 3.229399 0.179540
0.745624 3.221956 0.179975
0.769392 3.224576 0.180410
3.205830 3.238561 0.167254
0.502274 3.244494 0.178671
0.621006 3.252343 0.180192
0.643129 3.248041 0.180192
3.202344 3.258843 0.167695
3.195961 3.276281 0.167988
2.893506 3.294884 0.160946
2.918806 3.299226 0.161679
2.936198 3.294474 0.161973
2.957209 3.297137 0.162560
2.977314 3.295174 0.163000
3.000134 3.296064 0.163587
3.021274 3.298413 0.164173
3.041475 3.296130 0.164614
3.082955 3.295786 0.165641
2.883141 3.303958 0.160946
3.069865 3.302527 0.165494
3.140056 3.307888 0.167401
3.172521 3.321130 0.168575
3.200449 3.313694 0.169088
3.130652 3.322284 0.167548
-3.138077 -4.468513 0.200412
-3.117162 -4.468513 0.199972
-3.091664 -4.466762 0.199385
-3.073009 -4.474768 0.199238
-3.049925 -4.471191 0.198651
-3.024555 -4.469098 0.198064
-2.994786 -4.460241 0.197184
-2.978541 -4.466302 0.197037
-2.934754 -4.471307 0.196304
-2.891228 -4.471040 0.195424
-2.847842 -4.470388 0.194543
-2.804381 -4.474208 0.193810
-2.763362 -4.476187 0.193076
-2.736752 -4.464398 0.192196
-2.714140 -4.464152 0.191756
-2.689504 -4.460378 0.191169
-2.669318 -4.458516 0.190729
-2.648877 -4.461395 0.190435
-2.608362 -4.462067 0.189702
-2.343008 -4.462961 0.185007
-2.944506 -4.450520 0.195864
-2.894498 -4.440321 0.194543
-2.853238 -4.447961 0.193956
-2.810084 -4.447004 0.193076
-2.771301 -4.452454 0.192489
-2.618311 -4.446962 0.189408
-2.575953 -4.443931 0.188528
-2.559648 -4.453342 0.188528
-2.537721 -4.447474 0.187941
-2.521403 -4.456746 0.187941
-2.493318 -4.445039 0.187061
-2.477396 -4.449358 0.186914
-2.457208 -4.451409 0.186621
-2.433201 -4.446359 0.186034
-2.421128 -4.457494 0.186181
-2.395299 -4.448740 0.185447
-2.381311 -4.456243 0.185447
-2.355608 -4.447279 0.184713
-2.314200 -4.441940 0.183833
-2.301572 -4.457495 0.184127
-2.274293 -4.444550 0.183246
-2.256700 -4.444545 0.182953
-2.235005 -4.442074 0.182513
-2.213358 -4.439504 0.182073
-2.195855 -4.439269 0.181779
-2.138840 -4.440413 0.180899
-2.174293 -4.436519 0.181339
-2.152779 -4.433671 0.180899
2.627827 -4.320148 0.185594
2.667675 -4.319166 0.186327
2.382773 -4.314428 0.180899
2.394680 -4.298682 0.180605
2.420210 -4.307301 0.181339
2.435699 -4.303154 0.181486
2.463345 -4.315027 0.182366
2.479143 -4.305970 0.182366
2.498675 -4.308534 0.182806
2.520504 -4.309698 0.183246
2.540117 -4.312091 0.183686
2.555905 -4.302752 0.183686
2.586036 -4.317359 0.184713
2.595457 -4.302369 0.184420
2.703515 -4.306265 0.186621
2.741358 -4.301247 0.187208
2.781428 -4.299269 0.187941
2.850566 -4.306572 0.189555
2.893212 -4.302146 0.190289
2.917918 -4.309586 0.191022
2.935947 -4.302164 0.191169
2.958492 -4.301254 0.191609
3.229811 -4.303113 0.197478
3.299025 -4.300771 0.198945
2.633195 -4.293450 0.184860
2.670810 -4.289000 0.185447
2.712758 -4.290993 0.186327
2.757104 -4.291171 0.187208
2.799351 -4.292394 0.188088
2.821652 -4.292125 0.188528
2.861894 -4.289445 0.189262
2.974266 -4.295225 0.191756
2.999139 -4.297407 0.192343
3.017221 -4.294505 0.192636
3.039871 -4.293204 0.193076
3.062551 -4.291795 0.193516
3.083015 -4.291893 0.193956
3.105757 -4.290277 0.194397
3.137613 -4.286859 0.194983
3.176669 -4.292865 0.196010
3.194771 -4.284398 0.196157
3.245561 -4.291246 0.197478
3.273382 -4.295218 0.198211
3.317210 -4.291813 0.199091
3.342742 -4.292242 0.199678
3.361142 -4.288011 0.199972
3.397463 -4.269513 0.200265
3.388370 -4.230739 0.198945
3.388792 -4.199626 0.198064
3.386510 -4.165466 0.197037
3.389455 -4.142432 0.196451
3.391901 -4.114559 0.195717
3.394189 -4.086724 0.194983
3.417266 -4.088309 0.195570
3.442527 -4.087987 0.196157
3.465245 -4.084486 0.196597
3.483250 -4.079660 0.196891
3.511213 -4.082018 0.197624
3.526636 -4.073989 0.197771
3.552053 -4.073087 0.198358
3.574873 -4.069049 0.198798
3.592934 -4.063788 0.199091
3.599828 -4.041637 0.198651
-3.677964 -4.019564 0.199972
-3.659940 -4.025184 0.199678
3.590591 -4.001639 0.197331
-3.668289 -3.979604 0.198651
3.605824 -3.993306 0.197478
-3.674690 -3.957345 0.198211
3.596228 -3.953450 0.196157
-3.676188 -3.934099 0.197624
-3.674143 -3.903135 0.196744
3.583688 -3.910772 0.194690
-3.685673 -3.886742 0.196597
-3.686827 -3.863576 0.196010
3.563438 -3.864232 0.192929
3.591181 -3.865788 0.193663
-3.698193 -3.847155 0.195864
3.583475 -3.829251 0.192489
-3.681681 -3.801987 0.194250
3.587265 -3.809244 0.192049
3.590199 -3.784470 0.191462
-3.676869 -3.773225 0.193370
3.592999 -3.759727 0.190875
-3.679473 -3.748313 0.192783
-3.679994 -3.725360 0.192196
3.588167 -3.731133 0.189995
-3.685164 -3.703347 0.191756
3.596256 -3.712215 0.189702
-3.690415 -3.658478 0.190729
-3.684563 -3.675699 0.191022
3.584711 -3.673262 0.188381
3.585030 -3.650574 0.187794
-3.686705 -3.628104 0.189848
3.589952 -3.628885 0.187354
-3.702837 -3.617361 0.189995
3.583465 -3.584591 0.186034
-3.710104 -3.575430 0.189115
-3.674030 -3.566730 0.187941
3.585144 -3.548910 0.185154
-3.699590 -3.517044 0.187354
-3.674080 -3.514833 0.186621
3.578169 -3.516135 0.184127
3.592058 -3.507669 0.184273
-3.699017 -3.465235 0.186034
-3.677570 -3.470538 0.185594
3.581929 -3.472222 0.183100
3.587062 -3.455405 0.182806
-3.683553 -3.429084 0.184713
-3.693161 -3.412847 0.184567
3.573701 -3.417371 0.181486
3.594900 -3.412506 0.181926
-3.693862 -3.388479 0.183980
-3.695626 -3.368779 0.183540
-3.696093 -3.344484 0.182953
-3.702379 -3.325572 0.182659
-3.706844 -3.308601 0.182366
-3.700994 -3.279087 0.181486
-3.699276 -3.256878 0.180899
-3.209550 -1.805538 0.200407
-3.197771 -1.785709 0.199320
-3.211283 -1.777846 0.199755
-3.203772 -1.758377 0.198885
-3.209280 -1.748303 0.198885
-3.208638 -1.732733 0.198451
-3.213303 -1.707105 0.198016
-3.207924 -1.717192 0.198016
-3.218649 -1.679809 0.197581
-3.205402 -1.687873 0.197146
-3.260983 -1.658687 0.199103
-3.216817 -1.666015 0.197146
-3.226455 -1.656038 0.197364
3.280487 -1.637735 0.199537
3.296353 -1.632740 0.200189
3.280801 -1.610089 0.198885
3.301049 -1.605040 0.199755
3.284490 -1.584250 0.198451
3.294943 -1.567034 0.198559
3.297284 -1.548071 0.198233
3.292071 -1.530923 0.197581
3.294591 -1.511168 0.197255
3.289727 -1.488134 0.196494
3.301120 -1.472509 0.196712
3.341691 -1.469683 0.198668
3.365365 -1.465398 0.199755
3.495500 -1.158734 0.200407
3.495327 -1.146502 0.200189
3.484307 -1.128759 0.199320
3.484453 -1.108691 0.198994
3.495936 -1.092211 0.199320
3.484649 -1.074682 0.198451
3.495649 -1.066059 0.198885
3.480410 -1.047484 0.197798
3.491587 -1.030945 0.198124
3.494949 -1.005128 0.197907
3.482613 -0.982855 0.196929
3.497736 -0.973296 0.197581
3.489724 -0.957300 0.196929
3.496569 -0.947376 0.197146
3.492066 -0.925582 0.196603
3.494701 -0.907697 0.196494
3.493594 -0.887912 0.196168
3.484634 -0.866233 0.195407
3.482684 -0.840620 0.194973
3.507183 -0.858202 0.196494
3.501286 -0.831541 0.195842
3.488752 -0.815068 0.194973
3.506865 -0.807690 0.195842
3.486429 -0.789538 0.194538
3.497096 -0.778490 0.194973
3.499525 -0.767500 0.194973
3.499781 -0.747406 0.194755
3.483909 -0.725923 0.193669
3.503497 -0.709944 0.194538
3.487401 -0.688627 0.193451
3.480584 -0.660809 0.192799
3.493823 -0.676600 0.193669
3.506543 -0.652432 0.194103
3.465356 -0.633511 0.191712
3.503039 -0.627141 0.193669
3.482660 -0.604684 0.192364
3.481843 -0.585785 0.192147
3.482886 -0.567233 0.192038
3.472005 -0.546806 0.191278
3.472701 -0.529231 0.191169
3.476356 -0.504677 0.191169
3.473023 -0.485629 0.190843
3.462907 -0.471281 0.190191
3.472289 -0.461452 0.190626
3.458112 -0.446676 0.189756
3.474273 -0.430277 0.190517
3.466566 -0.410909 0.189973
3.479953 -0.399567 0.190626
3.461344 -0.386417 0.189539
3.460111 -0.360620 0.189321
3.470679 -0.374585 0.189973
3.469174 -0.350551 0.189756
3.463092 -0.330706 0.189321
3.461284 -0.306773 0.189104
3.458943 -0.287416 0.188887
3.460325 -0.270207 0.188887
3.466133 -0.246030 0.189104
3.463393 -0.227610 0.188887
3.460546 -0.209231 0.188669
3.469575 -0.191550 0.189104
3.454298 -0.178010 0.188235
3.474787 -0.168122 0.189321
3.463683 -0.148495 0.188669
3.464384 -0.131272 0.188669
3.459060 -0.112018 0.188343
3.461739 -0.088518 0.188452
3.446205 -0.069179 0.187582
3.470367 -0.058758 0.188887
3.446596 -0.045720 0.187582
3.464757 -0.027821 0.188561
3.458868 -0.009659 0.188235
3.458867 0.008452 0.188235
3.458719 0.032900 0.188235
3.458519 0.050104 0.188235
3.462179 0.069197 0.188452
3.449819 0.086119 0.187800
3.457465 0.098991 0.188235
3.224849 0.818408 0.181062
3.220517 0.835275 0.181062
3.216102 0.852133 0.181062
3.202519 0.871906 0.180627
3.228385 0.868063 0.181931
3.215272 0.900745 0.181714
3.237802 0.894271 0.182801
3.227797 0.915200 0.182583
3.404835 0.978894 0.192799
3.344649 0.999626 0.189973
3.375107 0.995269 0.191495
3.318672 1.016520 0.188887
3.344785 1.013036 0.190191
3.439569 1.002543 0.194973
3.345441 1.038147 0.190626
3.322562 1.044413 0.189539
3.437266 1.092346 0.196277
3.429437 1.103714 0.196060
3.432964 1.118751 0.196494
3.425639 1.128281 0.196277
3.426952 1.149636 0.196712
3.421197 1.166670 0.196712
3.416323 1.193034 0.196929
3.435776 1.185716 0.197798
3.415647 1.218945 0.197364
3.431392 1.210404 0.198016
3.433697 1.239593 0.198668
3.410372 1.245320 0.197581
3.422857 1.269202 0.198668
3.416002 1.293189 0.198777
3.421894 1.316970 0.199537
3.410294 1.324821 0.199103
3.400491 1.349783 0.199103
3.420286 1.343151 0.199972
3.414055 1.369674 0.200189
-1.892245 3.159207 0.200407
-1.856873 3.152345 0.199103
-1.831365 3.158001 0.198668
-1.815796 3.157767 0.198233
-1.784423 3.152673 0.197146
-1.759035 3.157768 0.196712
-1.452580 3.156684 0.189104
-1.434375 3.147449 0.188235
-1.416232 3.153458 0.188126
-1.398100 3.154993 0.187800
-1.378338 3.157135 0.187474
-1.358666 3.154787 0.186930
-1.332398 3.157302 0.186496
-1.306293 3.155228 0.185844
-1.283283 3.160345 0.185626
-1.855026 3.171954 0.199972
-1.807847 3.166924 0.198451
-1.778720 3.169642 0.197798
-1.753242 3.174683 0.197364
-1.732004 3.163571 0.196277
-1.722057 3.168996 0.196277
-1.701778 3.173129 0.195951
-1.681297 3.172739 0.195407
-1.661975 3.178390 0.195190
-1.642481 3.179525 0.194755
-1.620443 3.179604 0.194212
-1.598452 3.179550 0.193669
-1.581324 3.170260 0.192799
-1.541058 3.172275 0.191930
-1.527689 3.174303 0.191712
-1.507450 3.161854 0.190626
-1.467533 3.162974 0.189756
-1.348660 3.163420 0.187148
-1.324014 3.165157 0.186713
-1.299263 3.171082 0.186496
-1.274670 3.172440 0.186061
-1.260082 3.169667 0.185626
-1.242102 3.170316 0.185300
-1.222512 3.171509 0.184974
-1.573233 3.183196 0.193234
-1.559799 3.185353 0.193016
-1.499365 3.185565 0.191604
-1.218241 3.190259 0.185844
-1.203718 3.187229 0.185409
-1.176171 3.184727 0.184757
-1.153108 3.188903 0.184539
-1.123514 3.193093 0.184213
-1.099631 3.197175 0.183996
-1.079676 3.193434 0.183453
-1.054153 3.189332 0.182801
-1.037221 3.196973 0.182909
-1.019484 3.196391 0.182583
-0.998909 3.192414 0.182040
-0.973981 3.191758 0.181605
-0.954402 3.187249 0.181062
-0.939391 3.197946 0.181388
-0.919868 3.193231 0.180844
-1.196220 3.202845 0.186061
-1.171648 3.203411 0.185626
-1.145446 3.204391 0.185191
-1.070495 3.204947 0.183887
-0.900270 3.207109 0.181279
-0.880506 3.204302 0.180844
0.826979 3.218538 0.180844
0.863741 3.221275 0.181496
0.888393 3.218707 0.181714
0.912459 3.220271 0.182148
0.794183 3.230900 0.181062
0.821772 3.240478 0.181931
0.842802 3.230944 0.181714
0.854639 3.227834 0.181714
0.881833 3.241211 0.182801
0.942742 3.236504 0.183453
0.959964 3.235598 0.183670
0.991390 3.238647 0.184322
1.055070 3.239475 0.185409
1.079621 3.239796 0.185844
1.105922 3.239355 0.186278
1.168504 3.238549 0.187365
1.193283 3.238015 0.187800
1.597518 3.238021 0.196494
1.638557 3.235368 0.197364
1.667856 3.238343 0.198233
1.697114 3.236642 0.198885
1.740373 3.236281 0.199972
0.668530 3.251064 0.180627
0.697838 3.251022 0.180953
0.721687 3.253994 0.181388
0.739128 3.248034 0.181279
0.909875 3.250045 0.183670
0.931976 3.243776 0.183670
0.981211 3.241746 0.184322
1.007986 3.250251 0.185191
1.034922 3.258542 0.186061
1.097871 3.254740 0.186930
1.123907 3.258520 0.187582
1.141152 3.250398 0.187474
1.157968 3.246572 0.187582
1.218764 3.251975 0.188995
1.248976 3.246917 0.189321
1.280050 3.256261 0.190408
1.293219 3.259648 0.190843
1.343746 3.252115 0.191495
1.373603 3.261298 0.192582
1.441135 3.258245 0.193886
1.466560 3.255644 0.194321
1.492017 3.252846 0.194755
1.522589 3.256295 0.195625
1.581411 3.248134 0.196603
1.622493 3.245681 0.197472
1.659492 3.247123 0.198451
1.685239 3.242840 0.198885
1.722551 3.245795 0.199972
1.025877 3.265587 0.186278
1.049304 3.262331 0.186496
1.076943 3.265931 0.187148
1.191321 3.264260 0.189104
1.241328 3.262672 0.189973
1.272449 3.272098 0.191060
1.317091 3.267302 0.191712
1.337865 3.271806 0.192364
1.366428 3.272969 0.193016
1.398574 3.270218 0.193560
1.417212 3.268722 0.193886
1.432388 3.270823 0.194321
1.461127 3.275588 0.195190
1.490060 3.275696 0.195842
1.515679 3.272726 0.196277
1.539623 3.265946 0.196494
1.561864 3.266434 0.197038
-3.589833 -4.484211 0.210829
-3.558454 -4.478561 0.209948
-3.460499 -4.479139 0.207748
-3.415469 -4.488480 0.207014
-3.365647 -4.486044 0.205840
-3.339633 -4.485525 0.205253
-3.316017 -4.483140 0.204667
-3.287737 -4.479151 0.203933
-3.534459 -4.477168 0.209361
-3.424601 -4.466415 0.206574
-3.384477 -4.476867 0.205987
-3.252470 -4.465323 0.202759
-3.229053 -4.462565 0.202172
-3.203350 -4.461382 0.201586
-3.182337 -4.466582 0.201292
-3.161362 -4.466769 0.200852
-3.457377 -4.446157 0.206721
-3.463788 -4.420869 0.206134
-3.659120 -4.412287 0.210388
-3.672704 -4.395778 0.210242
-3.609652 -4.380571 0.208334
-3.665915 -4.359743 0.209068
-3.547212 -4.369672 0.206574
-3.520919 -4.365238 0.205840
-3.679286 -4.343227 0.208921
-3.548020 -4.338077 0.205694
-3.653661 -4.281064 0.206574
3.391701 -4.294485 0.200852
-3.664488 -4.266532 0.206427
-3.661792 -4.231913 0.205400
-3.661519 -4.200385 0.204520
-3.664152 -4.176841 0.203933
-3.660907 -4.142416 0.202906
-3.676065 -4.128971 0.202906
-3.682658 -4.080114 0.201732
-3.662344 -4.087630 0.201439
-3.376411 -2.222108 0.219969
-3.199497 -2.091300 0.208014
-3.211381 -2.065630 0.207797
-3.193735 -2.070867 0.207145
-3.197659 -2.042630 0.206493
-3.208498 -2.033034 0.206710
3.505714 -2.019948 0.220187
-3.205555 -2.007724 0.205841
-3.212631 -1.988812 0.205623
-3.202881 -1.966575 0.204537
-3.207495 -1.947509 0.204211
-3.206172 -1.922656 0.203450
-3.195037 -1.902358 0.202363
-3.208867 -1.894696 0.202798
3.298078 -1.884243 0.206710
-3.200995 -1.868646 0.201711
3.308437 -1.874111 0.206928
-3.200848 -1.845032 0.201059
3.289938 -1.850004 0.205406
3.310651 -1.845713 0.206276
-3.204774 -1.826122 0.200733
3.303411 -1.825838 0.205406
3.303685 -1.804591 0.204863
3.302285 -1.773635 0.203993
3.295650 -1.747904 0.203015
3.294964 -1.732096 0.202580
3.289766 -1.716194 0.201928
3.296034 -1.704125 0.201928
-3.644755 -1.681798 0.218448
-3.624084 -1.688398 0.217578
-3.578115 -1.682970 0.215187
-3.554765 -1.685646 0.214100
-3.512537 -1.681419 0.211927
3.291594 -1.686569 0.201276
-3.460474 -1.669879 0.209101
-3.429195 -1.670308 0.207580
-3.397960 -1.670531 0.206058
-3.360486 -1.665237 0.204102
-3.332926 -1.666823 0.202798
-3.305401 -1.668230 0.201494
3.296373 -1.668369 0.201059
-3.739551 -1.555094 0.220404
-3.736550 -1.530947 0.219752
-3.737112 -1.508374 0.219317
-3.739383 -1.486580 0.218991
-3.745264 -1.466245 0.218882
3.422154 -1.469908 0.202689
3.482151 -1.466616 0.205623
3.545119 -1.471337 0.208884
-3.739439 -1.448181 0.218230
3.531255 -1.452595 0.207797
-3.740991 -1.427427 0.217904
3.520672 -1.425661 0.206710
-3.743181 -1.404733 0.217578
3.509178 -1.400730 0.205623
-3.743831 -1.391575 0.217361
3.525433 -1.392260 0.206276
-3.750178 -1.362730 0.217144
-3.745158 -1.376466 0.217144
3.515918 -1.367269 0.205297
-3.750682 -1.349589 0.216926
3.524899 -1.349554 0.205406
-3.752938 -1.319410 0.216491
-3.744314 -1.331818 0.216274
3.496204 -1.323896 0.203450
3.515305 -1.318516 0.204319
-3.734432 -1.299736 0.215187
-3.742947 -1.287339 0.215405
3.498136 -1.290188 0.202906
-3.746973 -1.275574 0.215405
3.501205 -1.264302 0.202580
-3.734983 -1.248621 0.214318
3.511871 -1.246379 0.202798
3.500696 -1.230043 0.201928
-3.680446 -1.210069 0.210840
3.494184 -1.206219 0.201168
-3.688655 -1.197805 0.211057
3.509603 -1.192033 0.201711
-3.681556 -1.174217 0.210297
3.510162 -1.177891 0.201494
-3.699294 -1.151139 0.210840
-3.693521 -1.129223 0.210188
-3.701580 -1.109475 0.210297
-3.705144 -1.090483 0.210188
-3.712952 -1.078009 0.210405
-3.709198 -1.062194 0.209971
-3.712517 -1.050536 0.209971
-3.712416 -1.021176 0.209536
-3.700954 -1.032629 0.209101
-3.688625 -1.002177 0.208014
-3.719281 -0.995883 0.209536
-3.702782 -0.964503 0.208232
-3.684286 -0.972055 0.207362
-3.715764 -0.946100 0.208666
-3.689427 -0.919877 0.206928
-3.692774 -0.906349 0.206928
-3.707718 -0.895622 0.207580
-3.687201 -0.878415 0.206276
-3.694285 -0.865806 0.206493
-3.702658 -0.847335 0.206710
-3.733464 -0.819489 0.208014
-3.726537 -0.832297 0.207797
-3.755539 -0.811976 0.209101
-3.757480 -0.783610 0.208884
-3.731141 -0.792398 0.207580
-3.736449 -0.766983 0.207580
-3.758812 -0.757227 0.208666
-3.741971 -0.739573 0.207580
-3.752117 -0.729338 0.208014
-3.754765 -0.715581 0.208014
-3.745217 -0.701575 0.207362
-3.755620 -0.689285 0.207797
-3.751308 -0.668210 0.207362
-3.758696 -0.649240 0.207580
-3.756131 -0.628558 0.207254
-3.753461 -0.607928 0.206928
-3.760534 -0.588884 0.207145
-3.751723 -0.567395 0.206493
-3.769583 -0.555971 0.207362
-3.759451 -0.542415 0.206710
-3.761414 -0.528632 0.206710
-3.756209 -0.507859 0.206276
-3.770704 -0.489729 0.206928
-3.769986 -0.463564 0.206710
-3.756623 -0.473906 0.206058
-3.763728 -0.448797 0.206276
-3.764036 -0.428867 0.206167
-3.768221 -0.409360 0.206276
-3.769696 -0.395546 0.206276
-3.766947 -0.383297 0.206058
-3.756401 -0.368318 0.205406
-3.777608 -0.356424 0.206493
-3.762799 -0.343104 0.205623
-3.768010 -0.329658 0.205841
-3.773173 -0.316179 0.206058
-3.766185 -0.303682 0.205623
-3.779220 -0.290795 0.206276
-3.774711 -0.270571 0.205949
-3.766117 -0.250145 0.205406
-3.767370 -0.230422 0.205406
-3.768530 -0.210694 0.205406
-3.773565 -0.191167 0.205623
-3.782499 -0.171762 0.206058
-3.773365 -0.151551 0.205515
-3.788542 -0.118398 0.206276
-3.764132 -0.131446 0.204971
-3.772925 -0.106046 0.205406
-3.789574 -0.078719 0.206276
-3.781274 -0.092412 0.205841
-3.773829 -0.066531 0.205406
-3.794016 -0.052978 0.206493
-3.762233 -0.038743 0.204754
-3.790294 -0.027123 0.206276
-3.794385 0.000662 0.206493
-3.770398 -0.013161 0.205189
-3.754424 0.012450 0.204319
-3.790299 0.026462 0.206276
-3.770207 0.040141 0.205189
-3.774056 0.052040 0.205406
-3.729648 0.078776 0.203015
-3.705951 0.064688 0.201711
-3.793269 0.092043 0.206493
-3.782718 0.112610 0.205949
-3.772139 0.131067 0.205406
-3.699520 0.148897 0.201494
-3.806469 0.172185 0.207362
-3.793139 0.199454 0.206710
-3.765919 0.184184 0.205189
-3.784518 0.210925 0.206276
-3.791268 0.232216 0.206710
-3.782102 0.250544 0.206276
-3.793111 0.265240 0.206928
-3.784147 0.278554 0.206493
-3.787235 0.290747 0.206710
-3.795525 0.312386 0.207254
-3.783983 0.330390 0.206710
-3.780115 0.351000 0.206602
-3.776341 0.369608 0.206493
-3.778220 0.390760 0.206710
-3.784176 0.410425 0.207145
-3.775903 0.430547 0.206819
-3.783637 0.450502 0.207362
-3.777133 0.470801 0.207145
-3.778712 0.490098 0.207362
-3.775953 0.510872 0.207362
-3.785238 0.531307 0.208014
-3.776324 0.551254 0.207688
-3.779467 0.570916 0.208014
-3.790959 0.601107 0.208884
-3.781296 0.585376 0.208232
-3.777224 0.611100 0.208232
-3.670254 0.621436 0.202580
-3.763137 0.622983 0.207580
-3.687963 0.636359 0.203667
-3.669872 0.647097 0.202798
-3.687130 0.664084 0.203885
-3.669311 0.672783 0.203015
-3.674673 0.687696 0.203450
-3.676900 0.708056 0.203776
-3.694696 0.731569 0.204971
-3.693543 0.757504 0.205189
-3.680244 0.742736 0.204319
-3.679013 0.768586 0.204537
-3.699611 0.787052 0.205841
-3.681504 0.795297 0.204971
-3.682466 0.809643 0.205189
-3.687912 0.831110 0.205732
-3.701027 0.854449 0.206710
-3.701759 0.868921 0.206928
-3.710205 0.885264 0.207580
-3.687995 0.892220 0.206493
-3.715729 0.913358 0.208232
-3.716717 0.925993 0.208449
-3.763634 0.952346 0.211275
-3.791066 0.974086 0.213014
-3.803448 0.990015 0.213883
-3.794080 1.009889 0.213666
-3.800582 1.031883 0.214318
-3.789073 1.043684 0.213883
-3.808303 1.064014 0.215187
-3.781320 1.071432 0.213883
-3.831687 1.098719 0.216926
-3.793116 1.102720 0.214970
-3.820288 1.123647 0.216709
-3.808488 1.135360 0.216274
-3.823419 1.155086 0.217361
-3.804492 1.162424 0.216491
-3.823099 1.183447 0.217796
-3.807302 1.193866 0.217144
-3.814321 1.211439 0.217796
-3.813939 1.232248 0.218122
-3.820395 1.257560 0.218882
-3.808846 1.267034 0.218448
-3.819317 1.286084 0.219317
-3.803236 1.296209 0.218665
-3.825581 1.317253 0.220187
-3.824499 1.332580 0.220404
-3.819589 1.346588 0.220404
3.418296 1.391146 0.200841
3.425363 1.416031 0.201711
3.409839 1.422173 0.201059
3.406672 1.450259 0.201494
3.423007 1.442416 0.202146
3.396722 1.473413 0.201494
3.431459 1.473562 0.203232
3.408534 1.506186 0.202798
3.446174 1.509896 0.204754
3.411967 1.537695 0.203667
3.439464 1.534946 0.204971
3.432572 1.559974 0.205189
3.430462 1.574211 0.205406
3.417421 1.583415 0.204971
3.422156 1.606322 0.205732
3.422290 1.629417 0.206276
3.419535 1.649016 0.206602
3.410539 1.681152 0.206928
3.422979 1.673938 0.207362
3.418658 1.700757 0.207797
3.405263 1.709691 0.207362
3.409171 1.732943 0.208123
3.408475 1.756233 0.208666
3.410031 1.770613 0.209101
3.414132 1.788661 0.209753
3.411769 1.810260 0.210188
3.423361 1.839438 0.211492
3.420108 1.853877 0.211710
3.410761 1.862698 0.211492
3.421403 1.884822 0.212579
3.427176 1.911471 0.213557
3.418868 1.930366 0.213666
3.420848 1.955172 0.214427
3.426124 1.982062 0.215405
3.434122 2.011973 0.216600
3.429233 2.032084 0.216926
3.425191 2.046688 0.217144
3.421424 2.076171 0.217796
3.445035 2.075719 0.218882
3.434233 2.101204 0.219100
3.423110 2.111681 0.218882
3.436815 2.135070 0.220187
3.425582 2.145532 0.219969
-2.560334 3.122553 0.219752
-2.529846 3.131916 0.219100
-2.496027 3.133443 0.218013
-2.482048 3.139437 0.217796
-2.445887 3.137359 0.216491
-2.400931 3.126693 0.214535
-2.369949 3.130226 0.213666
-2.336641 3.130281 0.212579
-2.325152 3.138825 0.212579
-2.298068 3.136448 0.211601
-2.275750 3.140362 0.211057
-2.250233 3.129226 0.209753
-2.219643 3.131436 0.208884
-2.191414 3.136649 0.208232
-2.177627 3.141378 0.208014
-2.159309 3.139465 0.207362
-2.520849 3.144284 0.219317
-2.465594 3.142229 0.217361
-2.439260 3.152621 0.216926
-2.408054 3.156449 0.216057
-2.365658 3.148471 0.214318
-2.245035 3.142780 0.210188
-2.210448 3.142817 0.209101
-2.139174 3.143554 0.206928
-2.117399 3.148648 0.206493
-2.099195 3.146420 0.205841
-2.079114 3.150150 0.205406
-2.050858 3.144810 0.204319
-1.999314 3.158938 0.203450
-1.937752 3.159648 0.201711
-1.907941 3.159089 0.200841
-2.053996 3.171352 0.205623
-2.038041 3.172139 0.205189
-1.996217 3.179776 0.204319
-1.976104 3.173509 0.203450
-1.926158 3.166729 0.201711
-1.882693 3.169555 0.200624
-2.028547 3.182955 0.205406
-1.968225 3.183098 0.203667
1.770023 3.238379 0.200841
1.799783 3.240222 0.201711
2.095160 3.239863 0.209971
1.760045 3.248356 0.201059
1.789594 3.245860 0.201711
1.827264 3.261480 0.203450
1.835276 3.247806 0.203015
1.863306 3.245630 0.203667
1.903159 3.259478 0.205406
1.923408 3.256844 0.205841
1.947437 3.256509 0.206493
1.963840 3.260639 0.207145
1.975778 3.253419 0.207145
1.996965 3.249832 0.207580
2.022392 3.252903 0.208449
2.032179 3.242085 0.208232
2.061106 3.252172 0.209536
2.091897 3.260968 0.210840
2.122763 3.260042 0.211710
2.136889 3.255579 0.211927
2.157623 3.261049 0.212796
2.177141 3.255253 0.213122
2.215310 3.251179 0.214100
2.245902 3.244705 0.214753
2.288595 3.258759 0.216709
2.341232 3.260570 0.218448
2.357849 3.258438 0.218882
2.374483 3.256229 0.219317
2.408468 3.256047 0.220404
1.861011 3.265348 0.204537
1.889198 3.262975 0.205189
2.218517 3.277969 0.215405
2.249823 3.275961 0.216274
2.278920 3.270402 0.216926
2.309754 3.263390 0.217578
2.331583 3.272382 0.218665
2.396518 3.264852 0.220404
-0.609526 -4.359079 0.239532
-0.809592 -4.338580 0.240184
-0.763424 -4.342886 0.239966
-0.700682 -4.345358 0.239532
-0.677608 -4.346989 0.239423
-0.654545 -4.348507 0.239314
-0.638022 -4.346925 0.239097
-0.577736 -4.347290 0.238662
-0.547632 -4.347158 0.238445
-0.515281 -4.347090 0.238228
-0.500707 -4.340752 0.237793
-0.468446 -4.340334 0.237575
-0.438490 -4.339448 0.237358
-0.423356 -4.348977 0.237793
-0.393384 -4.347780 0.237575
-0.363780 -4.350357 0.237575
-0.330970 -4.340959 0.236923
-0.301138 -4.339127 0.236706
-0.271596 -4.341076 0.236706
-0.241819 -4.338836 0.236489
-0.164543 -4.342453 0.236489
-0.790094 -4.321873 0.239097
-0.728918 -4.332610 0.239097
-0.622093 -4.333094 0.238228
-0.591503 -4.329313 0.237793
-0.559752 -4.333533 0.237793
-0.529757 -4.333278 0.237575
-0.483464 -4.330649 0.237141
-0.454392 -4.337812 0.237358
-0.407444 -4.326427 0.236489
-0.375028 -4.321339 0.236054
-0.345605 -4.323792 0.236054
-0.315875 -4.322060 0.235837
-0.286185 -4.320125 0.235619
-0.254509 -4.322106 0.235619
-0.225499 -4.331716 0.236054
-0.202622 -4.328843 0.235837
-0.179795 -4.325859 0.235619
-0.134609 -4.331496 0.235837
-0.105123 -4.332313 0.235837
-0.073295 -4.328973 0.235619
-0.059585 -4.321195 0.235185
-0.037047 -4.331427 0.235728
0.001514 -4.337581 0.236054
0.015085 -4.321579 0.235185
0.031039 -4.337471 0.236054
0.060395 -4.325178 0.235402
0.076247 -4.324927 0.235402
0.098940 -4.326460 0.235511
0.121420 -4.319899 0.235185
0.137380 -4.323417 0.235402
0.158953 -4.324669 0.235511
0.196584 -4.329126 0.235837
0.225839 -4.323699 0.235619
0.241461 -4.318855 0.235402
0.271353 -4.325084 0.235837
0.303330 -4.326962 0.236054
0.332469 -4.320816 0.235837
0.362872 -4.330393 0.236489
0.394606 -4.327616 0.236489
0.423664 -4.320855 0.236271
0.469319 -4.320152 0.236489
0.483332 -4.322626 0.236706
0.530513 -4.333186 0.237575
0.562262 -4.329180 0.237575
0.599363 -4.322176 0.237467
0.666970 -4.318331 0.237793
0.700167 -4.337349 0.239097
0.730611 -4.324224 0.238662
0.760720 -4.323084 0.238880
0.793005 -4.333521 0.239749
0.825497 -4.331515 0.239966
0.862535 -4.328360 0.240184
-0.149929 -4.315007 0.234967
-0.118295 -4.315990 0.234967
-0.088914 -4.316696 0.234967
-0.014318 -4.317587 0.234967
0.046720 -4.317358 0.234967
0.180216 -4.317846 0.235185
0.211471 -4.308430 0.234750
0.257052 -4.313954 0.235185
0.286674 -4.316090 0.235402
0.315754 -4.310055 0.235185
0.347982 -4.315587 0.235619
0.377001 -4.309139 0.235402
0.406323 -4.306473 0.235402
0.436431 -4.311555 0.235837
0.452648 -4.313899 0.236054
0.498714 -4.316858 0.236489
0.514533 -4.315001 0.236489
0.543392 -4.307436 0.236271
0.573226 -4.307597 0.236489
0.620576 -4.317172 0.237358
0.643177 -4.313857 0.237358
0.680920 -4.304022 0.237141
0.710852 -4.303228 0.237358
0.743515 -4.317971 0.238445
0.773027 -4.300611 0.237793
0.805949 -4.314881 0.238880
0.836821 -4.317137 0.239314
3.534029 -2.637064 0.239966
3.535811 -2.601114 0.238880
3.558225 -2.597557 0.239749
3.519203 -2.549351 0.236489
3.533678 -2.542948 0.236923
3.526723 -2.518374 0.235837
3.526153 -2.498504 0.235185
3.533984 -2.487414 0.235185
3.523430 -2.460723 0.233880
3.542274 -2.454617 0.234532
3.513777 -2.418566 0.232141
3.542408 -2.419186 0.233446
3.514879 -2.381542 0.231055
3.528971 -2.374948 0.231489
3.507756 -2.342037 0.229533
3.519646 -2.331370 0.229750
3.523617 -2.318106 0.229533
3.521238 -2.288891 0.228555
3.504024 -2.252999 0.226707
3.529095 -2.250880 0.227794
3.510319 -2.220847 0.226055
3.524042 -2.214057 0.226490
3.519191 -2.184109 0.225403
3.519802 -2.160319 0.224751
3.520873 -2.143250 0.224316
3.532124 -2.132395 0.224534
3.521677 -2.111021 0.223447
3.524085 -2.087464 0.222904
3.533249 -2.067974 0.222795
3.509714 -2.036966 0.220839
-3.728876 -1.689924 0.222795
-3.689971 -1.688622 0.220839
-3.735045 -1.676246 0.222795
-3.746368 -1.650783 0.222795
-3.722048 -1.656384 0.221708
-3.723107 -1.624264 0.221056
-3.739189 -1.617317 0.221708
-3.733319 -1.590471 0.220839
-3.737509 -1.570336 0.220621
3.225737 0.495105 0.235535
3.255149 0.487415 0.237550
3.222292 0.517051 0.235535
3.235724 0.508784 0.236398
3.218415 0.540657 0.235535
3.236123 0.531443 0.236686
3.240295 0.554805 0.237262
3.218590 0.563239 0.235822
3.236141 0.578543 0.237262
3.225369 0.593195 0.236686
3.233825 0.613142 0.237550
3.224857 0.628072 0.237118
3.226203 0.652040 0.237550
3.218843 0.668114 0.237262
3.218121 0.690845 0.237550
3.231986 0.683207 0.238414
3.220759 0.716149 0.238126
3.231158 0.706042 0.238702
3.222990 0.733476 0.238558
3.217726 0.756242 0.238558
3.227300 0.776355 0.239566
3.217373 0.791821 0.239134
3.204406 0.818937 0.238702
3.230600 0.813029 0.240429
3.224991 0.835000 0.240429
3.210333 0.843772 0.239566
3.208367 0.866645 0.239854
-3.822239 1.368932 0.220947
-3.824042 1.393349 0.221491
-3.817057 1.412351 0.221491
-3.827932 1.440350 0.222578
-3.815921 1.449532 0.222143
-3.832954 1.472101 0.223447
-3.830282 1.501071 0.223882
-3.816363 1.481802 0.222795
-3.824755 1.515100 0.223882
-3.837716 1.536531 0.224969
-3.825463 1.545587 0.224534
-3.834563 1.565637 0.225403
-3.825107 1.578158 0.225186
-3.845942 1.600911 0.226707
-3.829004 1.610351 0.226055
-3.856160 1.638432 0.228012
-3.839980 1.645818 0.227360
-3.852249 1.667815 0.228446
-3.842451 1.680323 0.228229
-3.855425 1.700445 0.229316
-3.834573 1.708064 0.228446
-3.841953 1.735512 0.229424
-3.838264 1.758105 0.229750
-3.842669 1.777191 0.230403
-3.837067 1.789254 0.230403
-3.841325 1.808409 0.231055
-3.837201 1.831084 0.231381
-3.829368 1.852013 0.231489
-3.840501 1.874797 0.232576
-3.838176 1.888616 0.232794
-3.836664 1.914141 0.233337
-3.839576 1.948341 0.234315
-3.748070 1.960276 0.230185
-3.846569 1.978565 0.235402
-3.776612 2.025850 0.233228
-3.771320 2.110312 0.235185
-3.790593 2.173530 0.237793
3.427750 2.179515 0.221056
3.437958 2.170868 0.221273
3.429827 2.198530 0.221708
3.431810 2.217589 0.222360
3.428174 2.230538 0.222578
3.420855 2.252646 0.222904
3.426428 2.291204 0.224316
3.417701 2.311348 0.224534
3.425708 2.335108 0.225621
3.438114 2.359418 0.226925
3.419589 2.365187 0.226273
3.418607 2.391072 0.227033
3.426046 2.432515 0.228664
3.430135 2.461173 0.229750
3.427565 2.478409 0.230185
3.428142 2.498012 0.230837
3.423498 2.511131 0.231055
3.417483 2.526036 0.231272
3.424218 2.550474 0.232359
3.422580 2.566011 0.232794
3.417962 2.592025 0.233446
3.419240 2.629834 0.234750
3.414189 2.655960 0.235402
3.417006 2.678312 0.236271
3.430525 2.706350 0.237793
3.433089 2.728846 0.238662
3.420655 2.757164 0.239097
3.432417 2.748901 0.239314
3.429129 2.784791 0.240401
-2.988991 3.121250 0.235185
-3.098712 3.125872 0.239532
-3.081631 3.131515 0.239097
-3.060608 3.129758 0.238228
-3.049116 3.140954 0.238228
-3.026497 3.140605 0.237358
-2.974779 3.129290 0.234967
-2.949584 3.125647 0.233880
-2.934285 3.129071 0.233446
-2.899387 3.126109 0.232033
-2.874343 3.130208 0.231272
-2.843659 3.131174 0.230185
-2.805055 3.122994 0.228446
-2.775787 3.133046 0.227794
-2.733371 3.127808 0.226055
-2.692127 3.126573 0.224534
-2.652684 3.123515 0.223012
-2.638644 3.130163 0.222795
-2.621104 3.129251 0.222143
-2.599403 3.126552 0.221273
-2.587926 3.136058 0.221273
-2.808528 3.146690 0.229533
-2.769561 3.149198 0.228229
-2.734975 3.152891 0.227142
-2.692678 3.147155 0.225403
-2.558956 3.144307 0.220621
-0.521463 3.164986 0.231503
-0.498249 3.168724 0.231503
-0.489658 3.190246 0.232943
-0.479633 3.191768 0.232943
-0.440599 3.199399 0.233087
-0.417195 3.196501 0.232655
-0.399958 3.194687 0.232367
-0.376797 3.185449 0.231503
-0.360179 3.195395 0.232079
-0.332140 3.194426 0.231791
-0.310775 3.200583 0.232079
-0.286592 3.194828 0.231503
-0.241099 3.194582 0.231215
-0.219622 3.200130 0.231503
-0.197588 3.197568 0.231215
-0.163889 3.195477 0.230927
-0.140461 3.196593 0.230927
-0.118551 3.193488 0.230640
-0.006478 3.199671 0.230927
-0.876619 3.211856 0.240286
-0.856182 3.202917 0.239278
-0.840584 3.215288 0.239854
-0.515567 3.202326 0.234095
-0.470245 3.209295 0.234095
-0.459028 3.202858 0.233519
-0.390170 3.211973 0.233519
-0.345128 3.205087 0.232655
-0.321226 3.203561 0.232367
-0.299784 3.209646 0.232655
-0.275906 3.207782 0.232367
-0.259782 3.207121 0.232223
-0.231925 3.207262 0.232079
-0.209184 3.220819 0.232943
-0.180570 3.208559 0.231935
-0.152745 3.208012 0.231791
-0.131231 3.216950 0.232367
-0.101511 3.210036 0.231791
-0.079697 3.212647 0.231935
-0.057012 3.215127 0.232079
-0.040133 3.211396 0.231791
-0.028292 3.203542 0.231215
0.005276 3.215632 0.232079
0.021218 3.207581 0.231503
0.043975 3.213336 0.231935
0.060683 3.207083 0.231503
0.077571 3.210706 0.231791
0.100073 3.204094 0.231359
0.123251 3.217262 0.232367
0.150020 3.212135 0.232079
0.784103 3.213108 0.238702
0.797794 3.217957 0.239278
0.820666 3.216318 0.239566
0.846250 3.217932 0.240142
-0.018342 3.223563 0.232655
0.140796 3.232519 0.233519
0.208719 3.232843 0.233807
0.289270 3.238650 0.234671
0.310544 3.228663 0.234095
0.335025 3.234237 0.234671
0.357908 3.239813 0.235247
0.414338 3.237102 0.235535
0.518766 3.230098 0.236110
0.541400 3.230427 0.236398
0.563376 3.226667 0.236398
0.587728 3.226376 0.236686
0.647299 3.235300 0.238126
0.743862 3.239038 0.239854
0.757679 3.225583 0.239134
0.775872 3.223313 0.239278
0.813480 3.230487 0.240429
0.164000 3.255394 0.235247
0.181794 3.252445 0.235103
0.198565 3.261462 0.235822
0.221381 3.243998 0.234671
0.237948 3.248819 0.235103
0.260907 3.247058 0.235103
0.278078 3.247638 0.235247
0.325151 3.255292 0.236110
0.347725 3.256971 0.236398
0.375783 3.245816 0.235822
0.399458 3.249016 0.236254
0.429326 3.259295 0.237262
0.445034 3.247116 0.236542
0.461746 3.242771 0.236398
0.481599 3.253993 0.237406
0.503752 3.250637 0.237406
0.532136 3.248138 0.237550
0.557279 3.252015 0.238126
0.580102 3.252074 0.238414
0.601498 3.244127 0.238126
0.620443 3.246644 0.238558
0.639278 3.257225 0.239566
0.664732 3.260270 0.240142
0.678909 3.247152 0.239422
0.697998 3.249230 0.239854
2.429934 3.260007 0.221273
2.442561 3.255552 0.221491
2.500822 3.261491 0.223664
2.611012 3.261408 0.227360
2.647444 3.257679 0.228446
2.687337 3.261159 0.229968
0.302382 3.269506 0.236974
2.468929 3.265693 0.222795
2.485722 3.262977 0.223230
2.544290 3.268285 0.225403
2.578852 3.266565 0.226490
2.608212 3.278972 0.228012
2.680423 3.277170 0.230403
2.724821 3.271592 0.231707
2.752205 3.269507 0.232576
2.789070 3.264428 0.233663
2.923261 3.279844 0.239097
2.961585 3.277651 0.240401
2.537178 3.283909 0.225838
2.571789 3.282283 0.226925
2.650532 3.286013 0.229750
2.784837 3.283767 0.234315
2.840495 3.291331 0.236597
2.870372 3.289210 0.237575
2.885962 3.286179 0.238010
2.908574 3.287545 0.238880
2.946885 3.285511 0.240184
-1.366600 -4.431191 0.252356
-1.330651 -4.421268 0.251269
-1.343371 -4.413245 0.251052
-1.300102 -4.407440 0.250074
-1.277613 -4.411941 0.249965
-1.240907 -4.405809 0.249096
-1.210889 -4.414154 0.249096
-1.175663 -4.402999 0.248009
-1.142653 -4.399302 0.247357
-1.060418 -4.403414 0.246487
-1.255950 -4.397391 0.248878
-1.220635 -4.386599 0.247791
-1.186570 -4.379385 0.246922
-1.153420 -4.384103 0.246705
-1.123552 -4.391852 0.246705
-1.099576 -4.393794 0.246487
-1.075601 -4.395618 0.246270
-1.040119 -4.379521 0.244966
-1.026786 -4.394972 0.245618
-1.000647 -4.386655 0.244857
-0.976367 -4.385991 0.244531
-0.961992 -4.397343 0.244966
-0.937175 -4.388398 0.244205
-0.913311 -4.383235 0.243662
-0.898840 -4.394379 0.244096
-0.880369 -4.385896 0.243444
-0.867360 -4.392559 0.243662
-0.841312 -4.387447 0.243118
-0.781286 -4.364056 0.241271
-0.750886 -4.365336 0.241053
-0.720505 -4.366405 0.240836
-1.360201 -4.353718 0.248226
-1.369060 -4.334189 0.247357
0.886790 -4.331615 0.240619
0.903475 -4.332246 0.240836
0.916253 -4.325479 0.240619
0.941281 -4.326225 0.240945
0.963236 -4.323444 0.241053
0.980841 -4.327675 0.241488
0.995799 -4.320159 0.241271
1.012094 -4.328677 0.241923
1.058318 -4.321721 0.242140
1.075115 -4.321689 0.242357
1.681743 -4.325711 0.252573
1.706173 -4.324731 0.253008
1.723492 -4.322158 0.253225
1.742308 -4.323222 0.253660
1.758890 -4.325126 0.254095
1.776249 -4.322345 0.254312
1.798206 -4.330560 0.255182
1.829198 -4.321898 0.255399
1.882332 -4.320815 0.256486
1.918179 -4.322505 0.257355
1.952492 -4.320268 0.258007
1.992466 -4.323977 0.259094
2.028636 -4.324779 0.259964
1.026106 -4.317166 0.241488
1.042860 -4.317259 0.241705
1.097727 -4.315995 0.242357
1.122321 -4.317924 0.242792
1.135881 -4.314377 0.242792
1.160097 -4.309989 0.242901
1.184170 -4.313801 0.243444
1.197830 -4.301736 0.243009
1.223604 -4.306928 0.243662
1.247257 -4.304302 0.243879
1.279940 -4.307199 0.244531
1.302479 -4.300431 0.244531
1.329685 -4.308825 0.245400
1.360187 -4.303483 0.245618
1.394159 -4.300995 0.246053
1.427175 -4.302779 0.246705
1.461563 -4.308095 0.247574
1.498347 -4.312356 0.248444
1.544773 -4.300189 0.248661
1.582263 -4.312072 0.249965
1.646524 -4.305055 0.250834
1.808715 -4.317522 0.254747
1.845026 -4.315165 0.255399
1.860155 -4.313015 0.255616
1.894290 -4.311224 0.256269
1.930742 -4.308156 0.256921
1.969971 -4.316716 0.258225
2.004357 -4.314074 0.258877
2.042764 -4.313704 0.259746
2.059748 -4.314475 0.260181
1.261899 -4.295869 0.243662
1.341893 -4.292486 0.244748
1.373515 -4.290861 0.245183
1.406421 -4.292799 0.245835
1.440393 -4.289947 0.246270
1.470857 -4.283821 0.246487
1.507919 -4.296322 0.247791
1.526328 -4.298294 0.248226
1.558275 -4.295314 0.248661
1.591638 -4.295844 0.249313
1.625916 -4.291531 0.249748
-1.364247 -4.264471 0.243662
1.601767 -4.275021 0.248444
-1.775567 -4.240470 0.250182
-1.742109 -4.241374 0.249530
-1.804389 -4.228286 0.250182
-1.699049 -4.224386 0.247791
-1.664394 -4.220990 0.246922
-1.632745 -4.224770 0.246487
-1.599707 -4.224580 0.245835
-1.497524 -4.219515 0.243662
-1.371252 -4.232844 0.242140
-1.783316 -4.215541 0.249096
-1.743192 -4.206362 0.247791
-1.708504 -4.203330 0.246922
-1.678375 -4.211151 0.246705
-1.643858 -4.207597 0.245835
-1.607267 -4.204610 0.244966
-1.558988 -4.209974 0.244314
-1.541628 -4.203602 0.243662
-1.526211 -4.209224 0.243662
-1.505382 -4.199750 0.242792
-1.472795 -4.198593 0.242140
-1.460013 -4.211510 0.242575
-1.436458 -4.211155 0.242140
-1.410420 -4.203106 0.241271
-1.395005 -4.208248 0.241271
-1.377086 -4.205741 0.240836
-1.571606 -4.196751 0.243879
3.572048 -3.183697 0.260398
3.576052 -3.167163 0.259964
3.560639 -3.130301 0.258007
3.569079 -3.114603 0.257790
3.557723 -3.085059 0.256269
3.550844 -3.056365 0.254964
3.552912 -3.035546 0.254312
3.571565 -3.032124 0.254964
-3.720682 -3.008651 0.260398
-3.705016 -3.015282 0.259964
3.562176 -2.990606 0.253117
-3.730140 -2.971342 0.259529
-3.697420 -2.967494 0.258007
3.560117 -2.958817 0.251921
-3.695611 -2.924906 0.256486
3.558614 -2.935582 0.251052
-3.712588 -2.916276 0.256921
3.544627 -2.902277 0.249313
-3.694902 -2.880548 0.254964
-3.703933 -2.868926 0.254964
3.532039 -2.873482 0.247791
-3.701757 -2.845594 0.254095
3.536332 -2.855499 0.247357
3.562150 -2.845668 0.248117
-3.708987 -2.829585 0.253878
-3.698759 -2.803443 0.252573
3.544105 -2.800975 0.245835
-3.709009 -2.789868 0.252573
3.552887 -2.789827 0.245835
-3.706407 -2.766698 0.251704
-3.715080 -2.755040 0.251704
3.536616 -2.745753 0.243662
-3.715503 -2.734303 0.251052
3.537568 -2.718398 0.242792
-3.719048 -2.715956 0.250617
3.541156 -2.700569 0.242357
-3.717864 -2.697222 0.249965
3.547846 -2.685162 0.242140
-3.718000 -2.676577 0.249313
3.549879 -2.669202 0.241705
-3.722194 -2.650125 0.248661
3.553301 -2.631224 0.240619
-3.717261 -2.608667 0.247139
-3.711189 -2.575503 0.245835
-3.714025 -2.557353 0.245400
-3.714821 -2.520800 0.244314
-3.708853 -2.536654 0.244531
-3.711972 -2.482135 0.243009
-3.707469 -2.496015 0.243227
-3.697747 -2.453058 0.241488
3.542625 -0.413906 0.257418
3.567693 -0.405478 0.259146
3.537429 -0.388911 0.256842
3.566602 -0.378893 0.258858
3.543963 -0.365233 0.257130
3.541940 -0.345363 0.256842
3.551566 -0.328469 0.257418
3.539401 -0.307732 0.256410
3.558787 -0.291585 0.257706
3.536462 -0.270191 0.255978
3.536229 -0.245979 0.255834
3.547488 -0.227168 0.256554
3.542594 -0.209170 0.256122
3.543986 -0.184117 0.256122
3.538928 -0.165282 0.255690
3.524025 -0.140554 0.254539
3.547482 -0.152653 0.256266
3.544451 -0.128359 0.255978
3.524961 -0.114718 0.254539
3.549231 -0.104347 0.256266
3.529648 -0.090824 0.254826
3.526196 -0.066721 0.254539
3.545912 -0.078239 0.255978
3.530406 -0.053858 0.254826
3.550526 -0.041149 0.256266
3.530690 -0.029826 0.254826
3.542764 -0.010450 0.255690
3.536768 0.013638 0.255258
3.538641 0.033105 0.255402
3.530540 0.044122 0.254826
3.538333 0.057191 0.255402
3.529885 0.081091 0.254826
3.538100 0.070159 0.255402
3.541529 0.094346 0.255690
3.535000 0.112701 0.255258
3.536360 0.131279 0.255402
3.527882 0.143915 0.254826
3.539370 0.155522 0.255690
3.532478 0.174687 0.255258
3.533564 0.192361 0.255402
3.536429 0.212030 0.255690
3.531355 0.229353 0.255402
3.539984 0.249476 0.256122
3.528760 0.266320 0.255402
3.543669 0.280511 0.256554
3.526713 0.292180 0.255402
3.539121 0.310929 0.256410
3.526380 0.340546 0.255690
3.535377 0.330208 0.256266
3.540987 0.355060 0.256842
3.506753 0.375754 0.254539
3.520012 0.364130 0.255402
3.476158 0.398271 0.252523
3.517248 0.389923 0.255402
3.451117 0.406390 0.250795
3.509986 0.450636 0.255402
3.543038 0.474693 0.257994
3.540639 0.492312 0.257994
3.457986 0.506685 0.252235
3.526962 0.503594 0.257130
3.226493 0.860675 0.241005
3.222778 0.889577 0.241293
3.224323 0.913676 0.241869
3.407048 0.985714 0.255978
3.411593 0.998654 0.256554
3.324608 1.011107 0.250795
3.354513 1.008700 0.252811
3.388786 1.005477 0.255114
3.309490 1.033073 0.250219
3.336131 1.027985 0.251947
3.358938 1.062035 0.254251
-3.819092 2.259504 0.241488
-3.862235 2.304182 0.244748
-3.843496 2.312145 0.244096
-3.862651 2.349914 0.246053
-3.863283 2.379497 0.246922
-3.876154 2.404254 0.248226
-3.874089 2.422680 0.248661
-3.874847 2.451470 0.249530
-3.872055 2.478188 0.250182
-3.869658 2.496693 0.250617
-3.875193 2.517542 0.251487
-3.865940 2.531728 0.251487
-3.873301 2.556882 0.252573
-3.868576 2.571249 0.252791
-3.869081 2.592080 0.253443
-3.866174 2.610714 0.253878
-3.867862 2.629584 0.254530
-3.864788 2.648258 0.254964
-3.871488 2.673754 0.256051
-3.864941 2.690207 0.256269
-3.882541 2.731223 0.258333
-3.885369 2.765272 0.259529
-3.883156 2.782117 0.259964
3.422217 2.809036 0.240945
3.404741 2.845796 0.241488
3.427445 2.843499 0.242357
3.399693 2.870422 0.242140
-3.798405 2.896746 0.259964
-3.739929 2.894187 0.257355
-3.694023 2.888164 0.255182
-3.674000 2.894269 0.254530
-3.641469 2.890334 0.253008
-3.623008 2.894281 0.252356
-3.596819 2.895019 0.251269
-3.573775 2.898119 0.250400
-3.550757 2.901090 0.249530
-3.497095 2.897163 0.247139
-3.440594 2.890072 0.244531
-3.391962 2.891894 0.242575
-3.529285 2.902084 0.248661
-3.492585 2.915080 0.247574
-3.429978 2.902663 0.244531
-3.404078 2.920741 0.244096
3.400551 2.912574 0.243662
-3.390329 2.930586 0.243879
-3.415710 2.974469 0.246487
3.416062 2.967967 0.246270
-3.403345 2.982552 0.246270
-3.404367 3.005580 0.247139
3.422276 3.003369 0.247791
3.416160 3.031415 0.248552
-3.416890 3.048624 0.249204
-3.417202 3.081185 0.250400
3.192714 3.070271 0.241053
3.219669 3.076783 0.242357
3.253767 3.064052 0.243227
3.418774 3.067491 0.249965
-3.411798 3.099060 0.250834
3.175839 3.099172 0.241488
3.192914 3.093069 0.241923
3.251209 3.084203 0.243879
3.304206 3.092021 0.246270
3.318443 3.082608 0.246487
3.347337 3.086671 0.247791
3.368796 3.086933 0.248661
3.403725 3.096066 0.250400
3.420979 3.088923 0.250834
-3.249593 3.120605 0.245183
-3.223780 3.118609 0.244096
-3.179664 3.118109 0.242357
-3.419734 3.125931 0.252139
-3.390625 3.122211 0.250834
-3.373302 3.129184 0.250400
-3.350137 3.130619 0.249530
-3.334467 3.135656 0.249096
-3.299755 3.125882 0.247357
-3.281245 3.127965 0.246705
-3.209467 3.127617 0.243879
-3.168214 3.129742 0.242357
-3.139735 3.124429 0.241053
-3.127081 3.131451 0.240836
3.194585 3.137119 0.243662
-1.288643 3.158353 0.246188
3.177386 3.143188 0.243227
-1.690555 3.181346 0.260009
-1.655924 3.168029 0.257994
-1.605579 3.180438 0.257130
-1.536499 3.178967 0.254826
-1.466279 3.172447 0.252235
-1.442198 3.165932 0.251083
-1.416533 3.168761 0.250507
-1.399918 3.176142 0.250507
-1.381885 3.166625 0.249356
-1.358728 3.172290 0.249068
-1.338210 3.170172 0.248348
-1.316240 3.164243 0.247340
-1.266936 3.171419 0.246476
-1.240956 3.168824 0.245612
-1.633024 3.191096 0.258714
-1.597367 3.189033 0.257418
-1.587441 3.198440 0.257706
-1.565144 3.182756 0.255978
-1.521554 3.190563 0.255114
-1.504824 3.198493 0.255114
-1.482979 3.182290 0.253387
-1.376683 3.181935 0.250219
-1.312228 3.187492 0.248780
-1.286020 3.185251 0.247916
-1.262636 3.194593 0.247916
-1.233657 3.184512 0.246476
-1.221976 3.189012 0.246476
-1.175697 3.197863 0.245900
-1.138133 3.198723 0.245037
-1.108106 3.188137 0.243597
-1.086379 3.195606 0.243597
-1.060827 3.191569 0.242733
-1.037404 3.199259 0.242733
-1.000273 3.198524 0.241869
-0.977313 3.201442 0.241581
3.179630 3.191862 0.245183
3.196965 3.185825 0.245618
-1.562135 3.202000 0.257130
-1.220447 3.215215 0.248204
-1.199952 3.214398 0.247628
-1.161483 3.213654 0.246620
-1.131696 3.217927 0.246188
-1.079741 3.214694 0.244749
-1.022462 3.210342 0.243165
-0.989719 3.205981 0.242157
-0.960278 3.208670 0.241725
-0.936728 3.209390 0.241293
-0.913465 3.214016 0.241149
-0.895028 3.212992 0.240717
0.870216 3.219800 0.240717
0.894864 3.217179 0.241005
-1.108468 3.221783 0.245900
-1.057834 3.221969 0.244749
0.836451 3.228737 0.240717
0.861489 3.234534 0.241581
