ply
format ascii 1.0
element vertex 1214
property float x
property float y
property float z
property uchar red
property uchar green
property uchar blue
end_header
3.433000 1.496747 -0.031461 252 254 254
3.437667 1.511315 -0.035419 253 255 254
3.434667 1.529435 -0.035751 253 255 254
3.436333 1.549848 -0.035565 253 255 254
3.438727 1.569885 -0.035810 253 254 254
3.440500 1.590040 -0.034545 253 254 254
3.444111 1.609845 -0.034708 253 254 254
3.443083 1.628944 -0.034820 253 254 254
3.444111 1.649126 -0.034706 253 254 254
3.447250 1.670450 -0.034361 253 255 254
3.448222 1.690639 -0.034252 253 255 254
3.446833 1.709543 -0.034407 253 255 254
3.448833 1.728441 -0.032312 253 255 254
3.451333 1.735455 -0.037659 253 255 254
3.453444 1.749768 -0.033674 253 255 254
3.454667 1.770161 -0.033540 253 255 254
3.455445 1.790317 -0.033453 253 255 254
3.455616 1.810781 -0.034303 254 253 254
3.457250 1.830806 -0.036074 167 157 167
3.449250 1.854210 -0.029924 90 72 72
3.454616 1.847449 -0.037881 86 69 74
3.458000 1.869300 -0.035994 89 73 70
3.468000 1.882370 -0.037726 81 67 62
3.315889 -1.570096 -0.010057 15 22 12
3.306167 -1.552208 -0.020489 16 24 14
3.314667 -1.547032 -0.012298 35 42 33
3.309000 -1.521597 -0.014787 105 110 103
3.313200 -1.530305 -0.014268 87 93 85
3.308167 -1.506854 -0.013549 104 110 104
3.310250 -1.511543 -0.018656 104 110 103
3.393250 -1.506287 -0.015504 170 175 173
3.418125 -1.510133 -0.014635 169 174 174
3.442100 -1.508046 -0.014182 163 170 169
3.463429 -1.506354 -0.014020 161 168 166
3.478857 -1.501191 -0.015467 159 165 163
3.314934 -1.490398 -0.014599 106 112 105
3.348500 -1.493962 -0.015383 114 120 114
3.362750 -1.495939 -0.013665 166 172 168
3.488800 -1.496592 -0.011547 159 165 163
3.500500 -1.493280 -0.014182 160 166 163
3.519727 -1.487649 -0.015370 159 165 160
3.533000 -1.480531 -0.013332 160 166 159
3.540125 -1.469525 -0.015413 154 163 154
3.544375 -1.448384 -0.014932 142 149 142
3.546417 -1.429056 -0.014699 139 146 140
3.546563 -1.408819 -0.014681 137 144 137
3.547000 -1.389243 -0.015424 136 143 136
3.550000 -1.384274 -0.005583 135 142 134
3.546583 -1.369671 -0.016131 133 140 133
3.550000 -1.378467 -0.005583 133 140 132
3.543250 -1.350791 -0.015060 131 138 131
3.541600 -1.330651 -0.014669 131 138 130
3.542400 -1.308990 -0.015736 128 135 127
3.541000 -1.288430 -0.014647 127 135 127
3.538500 -1.269121 -0.015596 125 134 126
3.537769 -1.250571 -0.015457 127 135 128
3.534583 -1.229921 -0.014114 126 133 125
3.532778 -1.208970 -0.013357 126 131 124
3.529667 -1.184646 -0.013712 124 131 123
3.531500 -1.194026 -0.013503 127 132 125
3.528584 -1.169802 -0.013835 125 132 125
3.528111 -1.149434 -0.013889 125 132 124
3.527364 -1.129757 -0.013451 126 133 126
3.521900 -1.107930 -0.015175 126 131 127
3.519222 -1.088539 -0.014906 125 132 126
3.515000 -1.069779 -0.015389 126 134 126
3.514417 -1.049472 -0.015455 125 135 126
3.513667 -1.029120 -0.015540 125 135 126
3.513500 -1.008971 -0.015559 127 135 126
3.508000 -0.982476 -0.011606 128 135 128
3.512667 -0.991476 -0.015654 128 135 128
3.506167 -0.969272 -0.013536 129 136 130
3.506187 -0.949238 -0.013535 130 137 131
3.507143 -0.932765 -0.012195 130 137 131
3.511667 -0.923260 -0.011944 130 136 130
3.426000 -0.028327 -0.008818 30 37 34
3.434667 -0.008947 -0.013373 127 136 135
3.436333 0.010615 -0.013176 183 193 194
3.436500 0.030204 -0.015955 184 193 195
3.436500 0.049796 -0.015956 187 194 197
3.436000 0.063386 -0.014816 187 195 198
1.935600 0.095170 -0.016879 116 127 120
2.698800 0.089747 -0.015478 176 185 177
1.946000 0.108891 -0.024128 95 106 102
2.707333 0.110161 -0.012739 213 222 217
2.712000 0.116637 -0.020881 214 220 219
1.995000 0.130142 -0.008700 119 131 128
2.710000 0.124014 -0.007359 217 226 221
2.714530 0.130952 -0.014294 216 223 221
3.426667 0.133455 -0.014320 188 196 199
1.929000 0.151673 -0.012505 114 131 126
1.932600 0.147432 -0.010813 114 130 127
2.012000 0.151850 -0.006304 122 137 134
2.721739 0.150659 -0.015454 216 225 224
3.426750 0.149498 -0.015007 191 197 198
2.726459 0.171388 -0.015119 217 227 225
2.731000 0.180586 -0.023365 215 224 221
2.729000 0.189579 -0.009726 221 230 229
2.732667 0.192501 -0.018106 217 226 225
1.977500 0.208869 -0.008338 32 39 32
2.736320 0.211028 -0.013969 219 229 226
2.737250 0.230465 -0.013826 229 237 235
2.742833 0.243866 -0.017284 154 161 159
2.736500 0.355185 -0.022543 203 213 205
2.739720 0.370703 -0.013445 200 208 203
2.738480 0.392057 -0.013634 189 195 191
2.734950 0.410873 -0.014175 175 182 175
2.729353 0.432313 -0.014023 152 162 151
2.731375 0.423185 -0.016869 162 170 161
2.725800 0.450100 -0.015575 137 147 131
2.719450 0.470331 -0.014412 123 133 117
2.707917 0.494749 -0.014417 109 119 109
2.712500 0.485719 -0.013707 111 119 107
2.704000 0.509882 -0.014670 227 238 235
2.708333 0.523525 -0.009748 238 248 250
2.713500 0.524612 -0.019588 239 248 251
3.166200 0.625970 -0.016483 236 245 250
3.175857 0.635041 -0.016120 236 245 250
3.183438 0.651688 -0.014778 236 247 249
3.168667 0.671391 -0.020927 238 248 250
3.179364 0.669649 -0.012738 237 247 249
3.169000 0.690181 -0.015782 239 249 251
3.175000 0.689205 -0.009215 239 249 251
3.423333 1.431899 -0.009137 251 254 255
3.426000 1.449169 -0.015091 250 254 254
3.433000 1.458728 -0.007980 251 255 254
3.428625 1.470632 -0.016878 252 255 254
3.432250 1.472348 -0.008070 252 255 254
3.433889 1.492702 -0.013465 253 255 254
3.434750 1.509898 -0.016165 253 254 254
3.437385 1.528838 -0.016499 253 255 254
3.441000 1.549932 -0.014869 253 255 254
3.439333 1.570394 -0.015066 252 254 254
3.439923 1.590002 -0.016205 253 254 254
3.444417 1.610005 -0.015030 253 254 254
3.445688 1.630308 -0.014881 253 255 254
3.443000 1.650779 -0.014636 253 254 254
3.443923 1.670608 -0.015740 253 254 254
3.447231 1.690966 -0.014057 253 255 254
3.447800 1.710637 -0.015197 253 255 254
3.449400 1.730067 -0.013886 253 255 254
3.451000 1.734331 -0.017073 253 255 254
3.450000 1.753453 -0.007818 253 255 254
3.453333 1.751110 -0.014928 253 255 254
3.446584 1.770247 -0.012440 253 255 254
3.452333 1.767896 -0.022545 253 255 254
3.449000 1.786613 -0.008875 253 255 254
3.453889 1.791925 -0.015489 253 254 254
3.454067 1.809792 -0.014467 254 253 254
3.454923 1.830306 -0.013156 163 152 162
3.450000 1.854657 -0.022811 88 70 70
3.455643 1.849574 -0.013717 85 70 75
3.458909 1.870746 -0.014103 88 73 71
3.315667 -1.584301 0.010213 21 24 15
3.321084 -1.572073 0.005090 48 54 44
3.318077 -1.550895 0.006802 99 106 97
3.318700 -1.531129 0.005769 104 111 103
3.309000 -1.502831 0.001298 104 111 103
3.312000 -1.510334 0.008123 104 112 103
3.388250 -1.503695 0.005938 171 175 173
3.418800 -1.508391 0.005901 169 174 173
3.440333 -1.506400 0.005975 168 174 171
3.462556 -1.503310 0.004964 162 168 166
3.475500 -1.500723 -0.002890 160 166 164
3.316750 -1.490817 0.006318 106 112 105
3.345667 -1.492483 0.008705 116 121 119
3.358000 -1.494828 0.003487 158 162 160
3.467000 -1.499282 0.013054 159 165 163
3.482857 -1.497517 0.005290 160 166 164
3.499333 -1.493652 0.005672 159 165 161
3.520500 -1.488816 0.006334 160 167 160
3.532500 -1.482212 0.006822 160 167 160
3.536500 -1.467776 0.004413 154 160 155
3.542727 -1.448393 0.004632 142 149 142
3.545000 -1.429549 0.006011 138 145 138
3.548250 -1.409598 0.005822 137 143 137
3.549000 -1.392529 0.000106 135 142 134
3.550286 -1.389382 0.007725 134 141 135
3.547000 -1.369653 0.006500 132 139 131
3.550000 -1.378467 0.003128 133 140 132
3.544636 -1.350745 0.005919 132 139 131
3.543400 -1.330282 0.004664 131 137 130
3.540445 -1.310464 0.004888 129 134 127
3.538000 -1.289160 0.004593 129 135 128
3.538000 -1.268912 0.004592 125 134 125
3.533364 -1.249118 0.006137 124 134 125
3.533154 -1.230002 0.004902 124 132 124
3.529500 -1.201890 0.012230 121 128 120
3.532333 -1.209435 0.004557 124 131 123
3.529500 -1.189389 0.010307 125 132 124
3.531000 -1.191904 0.002794 126 133 125
3.527750 -1.169480 0.006249 124 131 123
3.526667 -1.148883 0.006118 127 134 126
3.526083 -1.131372 0.006049 128 135 127
3.521067 -1.109925 0.004868 126 133 126
3.516692 -1.088506 0.005578 127 134 127
3.513417 -1.069211 0.004520 125 132 125
3.515375 -1.049810 0.004758 126 133 126
3.513500 -1.029063 0.004530 126 136 127
3.509000 -1.004586 0.012585 125 132 124
3.512385 -1.010140 0.002850 126 134 126
3.506364 -0.988601 0.007051 128 136 128
3.513000 -0.994456 -0.004138 128 135 127
3.505667 -0.969109 0.006448 129 136 130
3.504333 -0.948646 0.006286 130 136 132
3.505900 -0.928531 0.005329 129 136 131
3.512000 -0.919539 -0.004256 130 136 132
3.503222 -0.910470 0.006782 128 135 129
3.505000 -0.897336 0.012091 129 136 129
3.512000 -0.887986 0.012955 130 137 130
3.427000 -0.064624 0.013621 27 35 29
3.425714 -0.045859 0.003902 30 37 33
3.434000 -0.043892 0.013114 171 180 176
3.426500 -0.033922 -0.000388 94 101 98
3.435667 -0.027930 0.006646 175 183 182
3.438125 -0.009004 0.006637 181 189 191
3.438917 0.010590 0.006731 182 192 194
3.438250 0.030196 0.006650 183 193 195
3.436083 0.049794 0.006382 185 193 196
3.435625 0.063782 0.006322 187 193 196
2.689000 0.081096 0.012513 89 96 88
2.695875 0.090036 0.004858 178 187 179
2.706174 0.110585 0.006161 219 228 224
1.925500 0.126190 0.003489 110 122 119
1.941333 0.128063 0.005991 107 121 118
1.973000 0.137564 0.013750 112 124 122
2.709750 0.125068 0.008552 223 232 229
2.713385 0.132661 0.004153 224 233 229
1.946000 0.141560 0.012803 109 124 121
1.956000 0.147940 0.002431 112 125 122
2.006500 0.144082 0.013117 112 124 123
2.012000 0.151850 -0.003341 125 140 137
2.720840 0.150059 0.005033 226 235 233
1.928667 0.162884 0.011291 112 127 121
2.726000 0.171719 0.005872 229 238 235
2.729084 0.188334 0.004587 230 239 235
2.731500 0.195644 0.007481 231 240 238
1.943167 0.206599 0.007843 60 70 61
1.953333 0.207696 0.014630 59 69 61
2.735700 0.210984 0.005298 230 238 236
2.737750 0.230505 0.005629 234 242 240
1.996000 0.241665 0.003264 80 88 77
2.741500 0.241591 0.004076 139 145 143
2.742050 0.371030 0.006322 208 217 213
2.740250 0.390171 0.006031 201 207 205
2.737600 0.409141 0.005604 186 193 188
2.730000 0.435830 -0.002060 155 162 154
2.733000 0.429179 0.005578 166 174 166
2.726360 0.450199 0.005933 140 148 136
2.720040 0.470442 0.004905 121 129 115
2.709000 0.496736 0.006654 110 121 110
2.713500 0.487864 0.005440 111 120 108
2.701000 0.509260 0.006048 224 234 231
2.700400 0.521856 0.005944 238 248 250
3.176000 0.637261 0.004725 235 246 249
3.185438 0.652134 0.006003 236 248 250
3.186923 0.671225 0.005615 239 250 252
3.184834 0.690484 0.005927 240 250 252
3.180800 0.710722 0.005897 241 251 253
3.166500 0.734622 0.000891 243 253 255
3.179273 0.730620 0.009133 242 252 254
3.168000 0.742653 0.001092 241 251 252
3.177200 0.751139 0.011544 243 253 254
3.168334 0.773347 0.011340 245 255 255
3.174000 0.764629 0.012124 243 253 255
3.415500 1.375473 0.012159 250 255 255
3.422000 1.393880 0.008214 250 254 254
3.424083 1.411340 0.004895 252 254 254
3.427625 1.428997 0.002541 252 254 254
3.432000 1.433107 0.011463 253 255 254
3.430000 1.457320 0.014003 253 255 254
3.432214 1.449974 0.005900 253 254 254
3.429333 1.468176 0.013918 253 255 254
3.431900 1.470507 0.004183 252 254 254
3.434533 1.490774 0.005629 253 255 254
3.430000 1.513175 0.002832 253 255 254
3.433000 1.509513 0.006001 253 255 254
3.436429 1.530306 0.007225 253 255 254
3.439077 1.550354 0.006104 253 254 254
3.438500 1.570533 0.006682 253 254 254
3.437143 1.591041 0.007313 253 254 254
3.440072 1.611757 0.006074 253 254 254
3.439250 1.629740 0.006772 253 254 254
3.441857 1.649935 0.005896 253 254 254
3.441667 1.670257 0.004273 253 254 254
3.445445 1.689134 0.004740 253 255 254
3.446917 1.709588 0.004921 253 254 254
3.445727 1.730628 0.005282 253 255 254
3.449000 1.747270 0.006583 253 255 254
3.451500 1.756174 0.003611 253 255 254
3.448429 1.771030 0.001896 253 255 254
3.451000 1.770889 0.011049 253 255 254
3.449400 1.786843 0.006352 253 255 254
3.451400 1.793618 0.006598 253 255 254
3.450000 1.804055 0.010923 253 255 254
3.452556 1.810540 0.004365 253 253 254
3.452417 1.830779 0.005600 150 138 148
3.453333 1.851020 0.005712 89 72 75
3.456143 1.867983 0.006863 85 70 68
3.329000 -1.624148 0.033553 103 111 100
3.330000 -1.630119 0.033691 79 87 76
3.327143 -1.608447 0.030984 99 106 97
3.321929 -1.589342 0.023733 84 88 81
3.318250 -1.569613 0.023997 102 108 100
3.314857 -1.548157 0.024688 103 111 101
3.317533 -1.529422 0.023362 103 111 101
3.314600 -1.509571 0.026728 101 110 99
3.387333 -1.503220 0.025098 166 172 173
3.417818 -1.508391 0.025599 168 174 177
3.439667 -1.505129 0.026440 168 175 174
3.460600 -1.502821 0.026358 162 168 166
3.483000 -1.499756 0.030217 160 166 164
3.317000 -1.490332 0.025689 104 111 102
3.343667 -1.491439 0.024731 121 126 122
3.357750 -1.493338 0.023901 165 171 170
3.467000 -1.499282 0.018708 160 166 164
3.484750 -1.498264 0.020966 158 164 162
3.497625 -1.494711 0.025458 158 164 161
3.520167 -1.488651 0.025466 159 165 161
3.531000 -1.479557 0.023959 159 165 161
3.530000 -1.479070 0.032489 156 162 158
3.535400 -1.467824 0.023938 155 161 157
3.541000 -1.448228 0.026307 141 149 141
3.545692 -1.429606 0.025147 138 145 138
3.547375 -1.409195 0.026024 135 142 136
3.548375 -1.390792 0.026151 135 141 137
3.550000 -1.387178 0.026358 134 140 136
3.546333 -1.371012 0.025896 132 138 133
3.544438 -1.349865 0.025652 131 138 130
3.544500 -1.329605 0.025661 131 138 130
3.540833 -1.310632 0.025198 128 135 127
3.538188 -1.289240 0.024867 128 135 127
3.536250 -1.268179 0.024625 125 133 124
3.534000 -1.250483 0.026072 124 132 123
3.533667 -1.228967 0.024873 124 131 123
3.529000 -1.201691 0.026590 125 132 124
3.532572 -1.212188 0.025395 124 131 123
3.527556 -1.189584 0.026406 124 131 123
3.526917 -1.169155 0.026325 125 133 124
3.528000 -1.149392 0.026465 124 131 123
3.526334 -1.131467 0.026252 124 133 124
3.520417 -1.109109 0.025500 123 133 124
3.516444 -1.087532 0.024995 126 133 126
3.513889 -1.069380 0.024670 123 130 123
3.516083 -1.050059 0.024949 124 133 125
3.510000 -1.022123 0.029909 126 138 128
3.513250 -1.029695 0.023871 125 136 126
3.507889 -1.008668 0.027725 125 133 125
3.511500 -1.014033 0.018630 127 136 127
3.506938 -0.989571 0.026651 126 133 128
3.506250 -0.969300 0.026561 129 136 129
3.503000 -0.948220 0.026145 129 136 130
3.503417 -0.928327 0.026196 127 134 129
3.500417 -0.910242 0.025814 129 135 131
3.501312 -0.890504 0.025924 129 135 130
3.499000 -0.870628 0.030122 130 136 131
3.430000 -0.089863 0.030759 19 28 23
3.433000 -0.084401 0.031157 115 124 119
3.429500 -0.064710 0.019524 67 75 70
3.434572 -0.069281 0.028970 170 179 176
3.437334 -0.048183 0.026136 179 188 188
3.440900 -0.028108 0.025478 180 187 189
3.440583 -0.009046 0.026559 180 188 191
3.436889 0.010608 0.026076 180 190 192
3.436833 0.030204 0.026069 183 191 194
3.436000 0.049793 0.025959 186 194 197
3.431667 0.063751 0.025392 187 193 196
2.686231 0.084612 0.025648 133 140 132
2.694417 0.094927 0.025038 217 225 218
2.704261 0.111265 0.025216 228 235 231
1.956333 0.133661 0.032538 98 114 106
1.972000 0.137501 0.016393 108 120 118
2.708222 0.125839 0.024710 232 238 236
2.713818 0.134226 0.024813 234 240 240
2.008000 0.145659 0.016432 116 128 126
2.011000 0.142897 0.017158 116 128 126
2.720818 0.149477 0.025236 236 243 243
1.946000 0.169965 0.029848 106 120 120
2.726100 0.171726 0.025165 238 247 246
2.732389 0.191887 0.025045 240 248 247
1.961714 0.209017 0.021640 62 70 62
2.736960 0.211079 0.024866 240 247 247
2.742300 0.230878 0.025775 238 246 246
2.746500 0.245051 0.028647 218 226 222
2.752333 0.249749 0.026031 118 124 118
2.746875 0.356590 0.028710 219 228 226
2.752000 0.350788 0.031750 218 229 225
2.742240 0.371058 0.025763 214 223 221
2.740850 0.390261 0.025528 206 214 211
2.739160 0.409389 0.025240 194 200 196
2.733200 0.429928 0.024228 173 180 172
2.727000 0.450764 0.024979 144 150 142
2.731000 0.442440 0.032440 162 167 160
2.717440 0.469955 0.025820 122 128 116
2.708000 0.493094 0.024201 109 118 108
2.711900 0.484256 0.025722 111 119 107
2.697231 0.510441 0.025446 225 234 232
2.695000 0.520720 0.032537 239 249 250
3.177500 0.637585 0.025404 237 247 249
3.185375 0.652122 0.026530 237 248 250
3.189182 0.670948 0.026374 238 249 251
3.191000 0.671360 0.035048 240 251 253
3.187875 0.688631 0.026888 240 250 252
3.186438 0.708837 0.026681 241 252 253
3.185125 0.729051 0.026492 242 252 254
3.185875 0.749774 0.026603 242 252 254
3.184500 0.769945 0.026408 243 253 254
3.179706 0.789927 0.025273 243 254 255
3.180800 0.810483 0.026395 244 254 255
3.180063 0.830259 0.025776 245 254 255
3.180688 0.850935 0.025868 246 254 255
3.168750 0.872952 0.016500 239 245 246
3.180154 0.870681 0.027563 249 254 255
3.178867 0.891883 0.026120 187 185 189
3.183750 0.905697 0.026308 119 79 95
3.200000 0.915929 0.031199 121 62 80
3.209000 0.923931 0.032493 124 51 70
3.409000 1.294931 0.033519 248 253 255
3.408000 1.305602 0.033385 250 254 255
3.410000 1.314769 0.033654 252 254 253
3.413333 1.330075 0.031326 251 254 254
3.408333 1.352878 0.016793 247 255 255
3.415800 1.351142 0.029436 251 255 254
3.418364 1.370423 0.026691 252 254 254
3.425900 1.389580 0.026867 252 255 254
3.428455 1.409902 0.024463 252 255 254
3.428429 1.428669 0.026562 253 254 254
3.431000 1.433577 0.023442 253 255 254
3.428222 1.450903 0.024940 253 255 254
3.431000 1.441027 0.022511 253 255 254
3.428250 1.470454 0.024945 253 254 254
3.429500 1.487801 0.030693 254 254 254
3.432714 1.492937 0.023932 253 254 254
3.436500 1.511866 0.026583 253 254 254
3.435273 1.530498 0.025353 253 255 254
3.437222 1.550292 0.026118 253 255 254
3.440500 1.569863 0.025989 253 254 254
3.439750 1.589839 0.026452 253 254 254
3.438637 1.610578 0.026813 253 255 254
3.441556 1.630949 0.026688 253 255 254
3.441143 1.651156 0.025029 253 254 254
3.442667 1.670795 0.024024 253 254 254
3.446385 1.690506 0.025154 253 255 254
3.445867 1.709571 0.023879 253 254 254
3.445000 1.729785 0.023530 253 254 254
3.448667 1.749892 0.025744 253 254 254
3.451500 1.759923 0.025176 253 254 254
3.450000 1.773131 0.024980 253 255 254
3.451375 1.769696 0.025159 253 254 254
3.449231 1.789340 0.024231 253 254 254
3.451333 1.791705 0.027966 253 255 254
3.449250 1.808539 0.022775 253 254 254
3.452500 1.812539 0.029526 253 253 255
3.453500 1.828604 0.025433 174 163 174
3.457714 1.849602 0.025178 86 68 74
3.459385 1.869370 0.026415 83 68 68
3.328750 -1.642900 0.052412 99 105 95
3.331000 -1.655003 0.050036 100 105 96
3.326000 -1.627062 0.050085 100 105 98
3.330250 -1.630262 0.043177 98 104 95
3.326375 -1.609165 0.046671 101 108 100
3.326400 -1.589227 0.046678 101 108 100
3.330000 -1.597716 0.047192 102 109 101
3.316500 -1.568644 0.045262 102 109 101
3.315813 -1.549450 0.045165 102 110 99
3.307500 -1.520789 0.049336 106 114 104
3.313000 -1.530198 0.043689 104 112 101
3.309000 -1.516235 0.052234 106 113 105
3.314588 -1.509117 0.044516 104 111 103
3.388000 -1.503566 0.036202 170 176 174
3.395250 -1.505937 0.045460 170 176 173
3.419222 -1.507371 0.045404 170 178 175
3.441286 -1.506354 0.045073 168 177 174
3.464200 -1.502947 0.045465 164 170 168
3.479000 -1.499648 0.045776 159 165 162
3.318072 -1.490366 0.045489 103 110 102
3.347000 -1.493179 0.044186 124 131 124
3.361250 -1.495159 0.046196 166 172 166
3.484857 -1.497707 0.046976 159 165 161
3.498000 -1.494326 0.044353 158 164 160
3.519562 -1.488354 0.045519 158 165 160
3.531000 -1.479557 0.038390 162 168 164
3.529000 -1.478583 0.046780 162 168 164
3.536334 -1.467696 0.044870 153 159 155
3.542000 -1.447255 0.045622 140 147 142
3.547000 -1.429329 0.046285 136 145 138
3.544917 -1.408060 0.046008 135 143 134
3.547667 -1.389017 0.046374 134 141 134
3.546111 -1.370912 0.046166 132 138 134
3.541500 -1.348565 0.045554 130 137 131
3.541667 -1.328366 0.045578 129 136 128
3.538333 -1.309553 0.045136 127 134 126
3.538750 -1.289478 0.045191 126 133 125
3.537778 -1.268819 0.045060 124 131 123
3.533889 -1.249860 0.044544 124 131 123
3.532583 -1.229105 0.044371 123 130 122
3.528000 -1.204590 0.047059 122 130 122
3.531333 -1.212241 0.040358 125 132 124
3.524667 -1.188444 0.046199 121 131 122
3.525133 -1.169040 0.045688 122 131 123
3.524077 -1.148782 0.046782 123 129 124
3.522667 -1.130088 0.045932 125 131 126
3.520625 -1.109185 0.045661 125 132 124
3.517500 -1.087915 0.045245 124 131 123
3.516583 -1.070343 0.045124 125 133 125
3.515000 -1.049681 0.044908 124 134 125
3.512667 -1.028776 0.044597 123 135 125
3.509667 -1.010544 0.039420 123 135 125
3.512333 -1.009535 0.049336 124 135 126
3.509800 -0.988803 0.042496 126 134 126
3.512000 -0.989533 0.050820 127 135 127
3.506222 -0.969294 0.046602 129 136 128
3.501600 -0.949486 0.046550 127 134 127
3.501182 -0.929707 0.045403 128 135 129
3.497778 -0.909430 0.045464 128 134 129
3.496667 -0.889108 0.045314 128 134 129
3.493222 -0.868112 0.044849 130 137 130
3.497273 -0.850096 0.045911 131 138 131
3.431889 -0.108573 0.049641 175 187 185
3.434727 -0.089556 0.046137 176 187 187
3.436750 -0.070561 0.045650 175 186 187
3.438625 -0.048222 0.045908 178 187 189
3.437167 -0.028586 0.045706 179 188 190
3.436500 -0.008977 0.045613 179 189 191
3.438083 0.010598 0.045834 180 190 192
3.438188 0.030197 0.045848 182 191 193
1.940500 0.052028 0.043982 115 125 116
3.435833 0.049793 0.045525 185 193 196
3.429000 0.066522 0.044585 186 193 196
3.431750 0.060958 0.044963 185 193 196
2.687133 0.085277 0.045893 135 142 134
2.692111 0.095691 0.045864 222 228 223
2.699917 0.111299 0.044343 231 240 237
1.949500 0.127555 0.037877 101 116 110
1.953333 0.123490 0.040320 103 116 111
2.705867 0.128112 0.045067 237 244 243
2.712400 0.136876 0.046245 241 247 246
1.924000 0.154106 0.052122 93 102 99
1.959000 0.152445 0.048990 109 123 120
1.972500 0.149092 0.052641 107 122 119
2.719480 0.149998 0.044957 243 249 248
2.727600 0.171809 0.044710 246 253 253
1.944000 0.192496 0.049187 117 129 125
2.730000 0.184816 0.053721 249 255 255
2.734474 0.191887 0.045488 247 254 253
2.739261 0.210683 0.046048 247 254 253
2.744625 0.231069 0.045598 244 251 252
2.747150 0.250512 0.045183 235 245 242
2.752000 0.259825 0.053407 241 250 249
2.749667 0.263934 0.044331 197 208 200
2.755714 0.271953 0.052219 227 238 231
2.759250 0.289832 0.054718 237 248 240
2.757000 0.311516 0.053443 236 247 241
2.756417 0.331116 0.050592 232 243 237
2.748500 0.353102 0.045362 225 234 231
2.751778 0.344983 0.044705 226 236 232
2.747100 0.371748 0.046042 220 229 226
2.744438 0.390799 0.045567 211 220 216
3.420000 0.400463 0.051700 110 117 109
2.741050 0.409689 0.044962 198 205 201
3.419000 0.405909 0.051560 102 109 101
2.735360 0.430290 0.046100 174 182 177
2.726778 0.453131 0.043850 142 149 140
2.732000 0.443840 0.047338 155 163 155
2.719050 0.470255 0.045318 122 130 116
2.706100 0.495451 0.045109 109 120 109
2.712786 0.486434 0.045710 112 120 108
2.697423 0.509829 0.045978 216 227 223
2.696000 0.520931 0.041169 239 249 251
3.174250 0.636883 0.045388 238 248 250
3.185215 0.650987 0.047037 239 249 251
3.189000 0.670334 0.048462 239 250 252
3.191333 0.671436 0.040241 239 250 252
3.188200 0.689222 0.047999 240 251 253
3.191000 0.681647 0.040191 238 249 251
3.188917 0.708151 0.045452 241 252 254
3.191000 0.717652 0.050478 241 252 254
3.186333 0.729863 0.046693 242 253 254
3.186000 0.749807 0.047154 243 253 255
3.187750 0.770804 0.047419 244 254 255
3.186667 0.791572 0.046744 244 254 255
3.184688 0.811052 0.046958 247 254 255
3.183813 0.831329 0.046828 247 254 255
3.183750 0.851831 0.046816 247 255 254
3.182188 0.871881 0.046580 250 254 255
3.182733 0.892048 0.046151 193 189 194
3.188400 0.906122 0.049055 134 99 113
3.203750 0.917106 0.044655 122 59 80
3.215500 0.925984 0.046397 128 51 74
3.367000 0.984766 0.044275 137 51 78
3.376333 0.991408 0.049241 140 45 72
3.404000 1.096261 0.052228 249 255 255
3.405200 1.108872 0.050735 249 254 255
3.405333 1.129971 0.049646 250 255 255
3.404400 1.150675 0.050623 250 255 255
3.404200 1.169431 0.050595 250 255 255
3.407667 1.191806 0.049972 250 255 255
3.410500 1.212317 0.050369 250 255 255
3.409000 1.225598 0.050159 251 255 255
3.411000 1.234715 0.050439 251 255 254
3.407500 1.255495 0.044405 251 255 255
3.415000 1.249091 0.048779 251 255 254
3.406000 1.268743 0.044198 251 255 255
3.415000 1.269652 0.051000 253 255 254
3.414750 1.291085 0.046106 251 255 254
3.417454 1.310351 0.046293 252 254 253
3.419000 1.329726 0.045997 253 254 254
3.422167 1.350581 0.046434 253 255 254
3.424778 1.371231 0.046795 253 255 254
3.425534 1.391645 0.044667 253 255 254
3.426333 1.410968 0.044221 253 255 254
3.426188 1.430427 0.044201 253 255 254
3.425167 1.449475 0.044060 253 254 254
3.427438 1.470069 0.044372 254 254 254
3.427889 1.487958 0.045363 254 254 254
3.432000 1.497383 0.042203 254 254 254
3.430000 1.518760 0.045654 254 254 254
3.432923 1.509869 0.044907 254 254 254
3.429625 1.526954 0.044672 253 254 254
3.431000 1.536012 0.044860 253 255 254
3.433143 1.549855 0.045951 253 254 254
3.436786 1.570866 0.044850 253 254 254
3.437400 1.591812 0.045921 253 254 254
3.437385 1.611103 0.045522 253 255 254
3.441000 1.630657 0.046233 253 255 254
3.440438 1.649979 0.046158 253 255 254
3.437125 1.670611 0.045701 253 255 254
3.439333 1.691415 0.046001 253 255 254
3.443833 1.710701 0.046622 253 254 254
3.445734 1.730836 0.047444 253 254 254
3.448500 1.748393 0.045155 253 254 254
3.451667 1.760018 0.044885 254 254 254
3.452778 1.771900 0.045037 253 254 254
3.447636 1.789914 0.047907 253 254 254
3.451250 1.789313 0.043422 253 254 254
3.448500 1.811616 0.050073 253 253 254
3.452167 1.810939 0.042140 254 253 254
3.446667 1.828955 0.047945 140 130 143
3.452000 1.831474 0.039305 133 125 131
3.455889 1.852541 0.045459 89 75 79
3.453700 1.869813 0.046288 78 66 65
3.340500 -1.701164 0.070372 97 105 92
3.343000 -1.688182 0.069843 99 106 94
3.338556 -1.667514 0.067372 99 104 96
3.329000 -1.640344 0.060546 100 107 99
3.334700 -1.651199 0.065176 100 106 96
3.324572 -1.625476 0.064513 100 108 98
3.331500 -1.636380 0.069020 102 110 98
3.321818 -1.607322 0.064382 100 106 99
3.320917 -1.588585 0.067423 103 108 101
3.316692 -1.569575 0.067003 103 109 101
3.316375 -1.549760 0.066749 102 109 101
3.314308 -1.529003 0.067060 103 110 101
3.312933 -1.509756 0.065691 104 110 102
3.382667 -1.500802 0.062960 168 174 168
3.406000 -1.507354 0.066359 168 175 169
3.418778 -1.506526 0.064514 169 176 170
3.442714 -1.506282 0.064494 167 173 168
3.462364 -1.503097 0.066359 163 169 166
3.479000 -1.501064 0.065643 158 164 161
3.491000 -1.499970 0.070195 158 164 160
3.317467 -1.491737 0.066370 106 110 103
3.341500 -1.490308 0.065099 118 122 117
3.352250 -1.490478 0.066694 168 172 168
3.377000 -1.497864 0.073113 166 170 169
3.489500 -1.496372 0.058589 157 163 158
3.500455 -1.492736 0.066607 158 165 159
3.519778 -1.485588 0.065679 157 164 158
3.529000 -1.478583 0.064088 159 166 160
3.537188 -1.468104 0.065227 153 159 154
3.543813 -1.448119 0.066149 139 146 140
3.544333 -1.428080 0.066217 137 144 137
3.545357 -1.409088 0.065120 136 143 135
3.548833 -1.390517 0.062977 134 141 133
3.550000 -1.388146 0.066042 133 140 133
3.546364 -1.370498 0.065713 131 138 132
3.542000 -1.350029 0.065898 130 137 133
3.540143 -1.329354 0.065637 128 135 128
3.539917 -1.310235 0.065607 126 133 125
3.537857 -1.290340 0.064492 125 131 124
3.533786 -1.268799 0.065576 125 132 124
3.529000 -1.244379 0.068124 124 131 123
3.531572 -1.251376 0.061557 124 131 123
3.528364 -1.229749 0.065307 124 131 123
3.531667 -1.225846 0.055798 123 129 124
3.528000 -1.208983 0.066350 122 131 123
3.531000 -1.214031 0.055707 124 131 124
3.524111 -1.188226 0.066288 121 131 124
3.524889 -1.171249 0.066396 123 129 126
3.520333 -1.149346 0.065758 123 128 126
3.520444 -1.129251 0.065772 123 128 124
3.518084 -1.108245 0.065441 123 130 122
3.518000 -1.088095 0.065430 124 132 124
3.517778 -1.070771 0.065399 123 130 122
3.510000 -1.039323 0.064309 123 130 123
3.513700 -1.050947 0.065402 124 131 123
3.509600 -1.032304 0.060814 125 132 125
3.511800 -1.026182 0.066856 125 133 125
3.511909 -1.009216 0.064054 124 132 125
3.508600 -0.988405 0.068123 126 133 126
3.512500 -0.991420 0.058922 127 136 127
3.506600 -0.968843 0.064979 128 135 127
3.502584 -0.950946 0.066132 128 135 128
3.500000 -0.930116 0.065765 128 135 129
3.499000 -0.909805 0.065626 128 135 128
3.497313 -0.889302 0.065388 127 134 126
3.496167 -0.868979 0.065232 130 137 128
3.490000 -0.855769 0.055811 130 137 129
3.492917 -0.849492 0.064769 131 138 131
3.489250 -0.822805 0.068521 131 137 133
3.491909 -0.832488 0.063847 131 137 133
3.487000 -0.809939 0.065640 134 140 136
3.487667 -0.792479 0.069720 134 140 136
3.432000 -0.187758 0.070149 167 176 174
3.429000 -0.162407 0.064129 170 179 176
3.433000 -0.168265 0.070295 169 179 177
3.429000 -0.140073 0.058545 166 176 175
3.435625 -0.148862 0.067882 169 178 178
3.429000 -0.134489 0.058545 174 184 183
3.433250 -0.128443 0.065439 172 181 182
3.437250 -0.109769 0.065316 173 182 184
3.439556 -0.090273 0.065649 174 184 186
3.438667 -0.070630 0.065520 177 185 188
3.436917 -0.048175 0.065266 179 187 190
3.436667 -0.028572 0.065231 179 188 190
3.436833 -0.008985 0.065256 179 189 191
3.436556 0.010613 0.065213 182 191 193
3.436000 0.030206 0.065134 184 192 193
3.435445 0.049791 0.065054 184 194 194
2.666000 0.080682 0.073326 85 95 86
3.427667 0.064649 0.068587 185 196 195
3.431000 0.060953 0.061622 186 197 197
2.669000 0.080736 0.065558 91 100 91
2.682211 0.089609 0.066443 167 176 168
2.692250 0.096984 0.059488 228 235 228
2.699160 0.110925 0.065023 236 243 240
2.707000 0.127092 0.065452 242 248 246
2.713500 0.135503 0.067041 244 250 249
1.930000 0.154558 0.056606 100 109 108
1.938667 0.157098 0.060923 97 106 105
1.979500 0.148127 0.058888 110 122 120
2.719522 0.150554 0.065366 248 254 253
1.940000 0.160971 0.060827 94 103 102
2.727952 0.170196 0.065802 250 255 254
2.731000 0.180586 0.068928 252 255 254
2.736813 0.191700 0.065726 252 255 254
2.742500 0.212073 0.065812 251 255 254
2.746667 0.230755 0.064451 249 255 254
2.751000 0.235918 0.074875 250 255 255
2.748500 0.245441 0.061426 247 254 253
2.752846 0.253907 0.066560 247 253 253
2.755625 0.271013 0.064909 244 253 251
2.757947 0.290553 0.065684 244 252 251
2.757625 0.310287 0.065282 239 249 249
2.759000 0.329993 0.065537 235 245 244
3.419000 0.336901 0.069371 117 127 118
2.750000 0.357014 0.057374 226 235 232
2.755722 0.350557 0.065654 231 239 237
3.421364 0.351008 0.066578 114 122 111
2.749500 0.374253 0.057282 221 229 226
2.754308 0.370104 0.066168 223 233 230
3.425437 0.370444 0.066407 110 118 109
2.748625 0.391429 0.059287 212 223 217
2.753091 0.389146 0.068182 214 225 221
3.425308 0.390801 0.065746 110 115 108
2.745762 0.411876 0.064216 198 206 203
2.752000 0.404210 0.070734 204 214 210
3.422769 0.408936 0.067951 107 113 106
2.738100 0.430747 0.065966 177 185 180
2.728750 0.457595 0.065821 138 146 137
2.732786 0.448270 0.065583 151 161 152
2.721840 0.470776 0.065057 123 131 118
2.706546 0.494959 0.066041 110 121 111
2.714000 0.485653 0.065003 113 122 109
2.689500 0.515347 0.069511 245 253 255
2.696692 0.509352 0.064715 214 224 221
3.174250 0.636883 0.065838 238 249 251
3.186273 0.650685 0.065168 239 250 252
3.191000 0.655930 0.071052 240 250 252
3.189286 0.668034 0.060499 240 251 253
3.191200 0.670377 0.070055 240 250 253
3.189600 0.690577 0.061577 240 251 253
3.191571 0.688393 0.068938 241 252 254
3.189857 0.709294 0.061323 242 253 254
3.191625 0.711373 0.066008 242 253 254
3.185786 0.729945 0.065457 243 253 255
3.191000 0.722795 0.071052 244 254 255
3.185563 0.749695 0.067623 244 254 255
3.186188 0.770393 0.067721 245 254 255
3.187214 0.790106 0.065314 246 254 255
3.186000 0.811417 0.065127 249 254 255
3.185923 0.832523 0.065905 249 254 254
3.182875 0.851575 0.067202 249 255 255
3.183063 0.872145 0.067233 249 255 255
3.183923 0.891150 0.066775 196 196 200
3.187667 0.904352 0.067954 153 128 139
3.201000 0.916243 0.064895 125 61 82
3.212250 0.924958 0.066647 131 53 76
3.382375 0.992431 0.065670 140 45 70
3.391250 1.003542 0.066972 140 34 59
3.408000 1.097672 0.063882 250 255 255
3.410000 1.098378 0.072493 250 255 255
3.408445 1.108920 0.063022 249 255 255
3.410000 1.115023 0.066945 250 255 255
3.409000 1.128531 0.055706 250 255 255
3.411308 1.130010 0.066281 250 255 255
3.408000 1.150347 0.055564 250 255 255
3.411077 1.150847 0.066248 250 255 255
3.407500 1.172338 0.055493 250 255 255
3.410778 1.170801 0.067059 250 255 255
3.409000 1.183074 0.063101 250 255 254
3.410615 1.191659 0.064473 250 255 254
3.412250 1.210224 0.064495 251 255 254
3.413875 1.230307 0.064734 251 255 254
3.420250 1.252316 0.065654 253 255 254
3.421125 1.272158 0.065783 253 255 254
3.418750 1.290664 0.065437 253 255 254
3.421688 1.311381 0.065861 253 255 254
3.421000 1.330582 0.065763 253 254 254
3.423000 1.350945 0.066051 253 254 254
3.427000 1.372213 0.066631 253 254 254
3.427546 1.388690 0.065950 253 254 254
3.427933 1.409462 0.066206 253 254 254
3.427500 1.431034 0.066702 253 254 254
3.427500 1.450566 0.066704 253 254 254
3.429600 1.468301 0.061981 254 254 254
3.431429 1.473956 0.066074 254 254 254
3.429625 1.491351 0.063521 254 254 254
3.431000 1.485726 0.070004 254 254 254
3.429500 1.514326 0.071181 254 254 254
3.431444 1.510154 0.062617 254 254 254
3.428455 1.532721 0.070139 254 254 254
3.431500 1.529274 0.060297 254 254 254
3.429000 1.549540 0.069712 254 254 254
3.431667 1.552177 0.060786 254 254 254
3.434556 1.571338 0.064927 254 254 254
3.435818 1.590798 0.064602 253 254 254
3.437300 1.610800 0.065882 252 255 254
3.438556 1.629375 0.065501 253 255 254
3.441333 1.650456 0.065901 253 254 254
3.438750 1.671487 0.065531 253 255 254
3.439667 1.691595 0.065664 253 254 254
3.440889 1.709079 0.065837 254 254 254
3.444334 1.730617 0.066332 254 254 254
3.444546 1.750890 0.064319 254 254 254
3.446308 1.771242 0.065750 253 254 254
3.451000 1.768077 0.056043 254 254 254
3.444077 1.791120 0.065432 252 254 254
3.447083 1.813598 0.063920 252 253 254
3.448200 1.832230 0.061271 112 98 113
3.452200 1.833466 0.070841 152 134 150
3.450000 1.843413 0.055903 91 76 81
3.454455 1.852199 0.065744 89 75 76
3.453938 1.871081 0.064900 79 68 66
3.349000 -1.700779 0.085239 99 107 94
3.350000 -1.704996 0.089019 98 106 93
3.345000 -1.687555 0.086099 99 106 94
3.350000 -1.695934 0.085394 99 107 94
3.337909 -1.667628 0.085490 100 104 96
3.329000 -1.645743 0.092938 104 105 97
3.334000 -1.649533 0.085613 101 105 97
3.327400 -1.627554 0.085671 98 105 96
3.332000 -1.636667 0.079903 102 110 99
3.324750 -1.610945 0.084180 101 108 100
3.321923 -1.591113 0.085603 102 109 101
3.320778 -1.571012 0.086251 101 108 100
3.318250 -1.550784 0.085854 103 108 101
3.315889 -1.530685 0.085483 102 107 100
3.307667 -1.505694 0.084195 104 110 102
3.311000 -1.513733 0.087399 105 111 103
3.381000 -1.499938 0.090195 171 175 174
3.403750 -1.506192 0.085417 169 174 173
3.418429 -1.505818 0.086452 168 174 173
3.441875 -1.506255 0.085606 166 172 170
3.462000 -1.502400 0.085808 161 169 164
3.479000 -1.499648 0.084563 156 164 159
3.307500 -1.496673 0.086849 102 108 101
3.315636 -1.488034 0.083977 106 110 104
3.341250 -1.490177 0.086750 120 124 120
3.352667 -1.490694 0.085808 167 170 168
3.378000 -1.498383 0.081498 168 171 170
3.486167 -1.497550 0.087520 156 164 159
3.501417 -1.489441 0.084547 157 163 159
3.518750 -1.482214 0.085656 156 162 159
3.526500 -1.475443 0.086793 158 163 162
3.535600 -1.465608 0.084659 151 157 155
3.542250 -1.447376 0.086206 140 145 142
3.544000 -1.427923 0.086464 136 143 137
3.546154 -1.408405 0.085883 135 142 134
3.551000 -1.402155 0.075863 137 144 136
3.546800 -1.388044 0.085707 133 140 132
3.550000 -1.392985 0.075721 135 142 134
3.546200 -1.371530 0.085621 130 138 130
3.542667 -1.349085 0.086267 127 136 128
3.539667 -1.327491 0.085830 127 134 126
3.540778 -1.310606 0.085993 126 133 125
3.536333 -1.291345 0.085345 124 131 123
3.529750 -1.269786 0.084386 123 130 122
3.531250 -1.268252 0.084605 125 132 124
3.529167 -1.245024 0.084302 123 130 122
3.531000 -1.254438 0.084568 121 128 120
3.525584 -1.229143 0.086660 123 130 122
3.526000 -1.209962 0.085486 119 130 121
3.526500 -1.188593 0.085066 122 130 124
3.522923 -1.169599 0.085604 124 130 125
3.521800 -1.149329 0.086680 122 128 122
3.521083 -1.129493 0.086002 123 129 123
3.516583 -1.110564 0.085342 123 130 123
3.514133 -1.090137 0.084406 124 131 123
3.509000 -1.073365 0.091394 125 132 124
3.512556 -1.067630 0.082517 125 132 125
3.511867 -1.049151 0.084075 125 132 124
3.508750 -1.030292 0.092790 124 131 123
3.511778 -1.028470 0.081769 125 132 125
3.508917 -1.010290 0.084217 125 132 125
3.507429 -0.989734 0.085227 127 134 128
3.505636 -0.969621 0.084515 126 133 128
3.502667 -0.948112 0.086160 124 132 127
3.499111 -0.926980 0.085638 126 135 130
3.497889 -0.909464 0.085456 127 134 129
3.496167 -0.888956 0.085202 126 133 125
3.497445 -0.869356 0.085389 130 137 129
3.493667 -0.851134 0.084833 129 136 131
3.487000 -0.828070 0.087506 132 138 135
3.491500 -0.839108 0.081665 132 138 135
3.488400 -0.810894 0.088041 132 138 135
3.491750 -0.802131 0.081702 134 140 136
3.486769 -0.787422 0.087318 133 141 133
3.491000 -0.799077 0.090139 135 142 135
3.482083 -0.768240 0.085967 134 142 134
3.480364 -0.750752 0.087518 134 141 134
3.478000 -0.729066 0.090630 135 142 135
3.476400 -0.711168 0.091360 136 143 135
3.476000 -0.690083 0.093569 135 145 136
3.470000 -0.663190 0.092662 139 145 141
3.475000 -0.672844 0.093418 137 146 138
3.464667 -0.650670 0.091856 139 145 141
3.460000 -0.635508 0.091150 141 147 143
3.450000 -0.546144 0.089638 142 148 145
3.452000 -0.529651 0.089941 144 153 147
3.453250 -0.510186 0.090130 146 155 147
3.455000 -0.487974 0.090394 148 157 149
3.454333 -0.468153 0.090293 148 158 150
3.454750 -0.448511 0.090356 149 159 150
3.449500 -0.422373 0.092374 150 159 154
3.454000 -0.431504 0.090243 150 160 153
3.449333 -0.410169 0.091411 150 159 156
3.451000 -0.402916 0.095414 150 159 156
3.449333 -0.388620 0.089538 155 159 160
3.444667 -0.368323 0.091639 153 160 159
3.442714 -0.350023 0.090943 155 163 162
3.444500 -0.329013 0.091615 159 164 164
3.444000 -0.309308 0.091539 159 167 166
3.443500 -0.288496 0.089781 159 169 168
3.441889 -0.269813 0.088415 161 171 170
3.440167 -0.250024 0.088154 162 172 172
3.440818 -0.228424 0.088764 166 175 174
3.440500 -0.209137 0.087645 167 176 175
3.440125 -0.188372 0.085350 167 176 176
3.439417 -0.168707 0.085240 169 178 179
3.441875 -0.149253 0.085608 171 179 181
3.437083 -0.129358 0.084889 173 180 181
3.438563 -0.109833 0.085108 174 182 184
3.442000 -0.090379 0.085624 177 183 187
3.438688 -0.070633 0.085126 177 184 187
3.437063 -0.048180 0.084884 180 188 191
3.434917 -0.028533 0.084558 180 188 190
3.437313 -0.008990 0.084918 181 189 192
3.436417 0.010613 0.084786 182 190 193
3.436250 0.030207 0.084762 184 192 194
3.434834 0.049788 0.084547 185 195 196
3.427333 0.063716 0.086212 187 196 197
2.669000 0.080736 0.080182 85 95 86
2.678647 0.092515 0.085557 213 221 216
2.688167 0.102852 0.085404 240 248 245
2.698474 0.113353 0.085608 242 249 247
2.706909 0.127766 0.086192 246 252 250
2.713714 0.135715 0.083006 247 253 253
2.721304 0.149527 0.085588 249 254 254
2.729600 0.168489 0.081963 252 255 254
2.732584 0.171377 0.087485 252 255 254
2.739318 0.190104 0.085777 253 254 254
2.746950 0.211811 0.084913 253 254 254
2.749333 0.224962 0.083212 251 255 254
2.753846 0.233324 0.086755 250 255 254
2.758042 0.252070 0.085264 249 254 254
2.759650 0.271409 0.085215 248 254 254
2.763560 0.291383 0.085972 246 253 253
2.763625 0.310977 0.083807 242 251 251
2.764350 0.330655 0.083947 238 246 246
3.422400 0.332227 0.086579 121 130 121
2.763650 0.352112 0.084031 232 240 239
3.425333 0.350910 0.085910 115 122 114
2.761227 0.370589 0.086113 224 235 232
3.426000 0.370502 0.086010 111 118 109
2.757640 0.390612 0.084822 215 225 221
3.427000 0.390144 0.086161 108 116 107
2.747714 0.415688 0.081662 196 205 201
2.754071 0.408658 0.087226 201 211 207
3.428800 0.411007 0.085316 106 113 105
3.431000 0.404574 0.092353 107 115 104
2.742364 0.432052 0.085003 181 190 183
3.424333 0.423282 0.085758 106 114 105
2.728000 0.459069 0.081223 138 146 136
2.736524 0.450565 0.086063 166 175 167
2.724263 0.471679 0.084441 151 161 151
2.732000 0.464086 0.092737 209 218 213
2.708000 0.497954 0.081581 177 190 180
2.717450 0.490233 0.086215 182 194 185
2.689000 0.515243 0.075738 245 253 255
2.699533 0.511503 0.082039 242 250 250
2.715667 0.508721 0.092327 243 252 253
3.168000 0.635533 0.080157 239 249 252
3.171000 0.636181 0.088306 238 249 253
3.185000 0.647762 0.086065 239 249 252
3.191333 0.656004 0.081393 241 251 253
3.190000 0.664706 0.085033 241 251 253
3.192083 0.670322 0.083659 241 251 253
3.193187 0.689873 0.084268 242 252 254
3.193375 0.710509 0.084299 243 253 254
3.188778 0.732527 0.084977 243 253 254
3.191800 0.724020 0.084557 243 253 255
3.188083 0.750340 0.086005 244 254 255
3.188000 0.770868 0.085991 246 254 255
3.188286 0.791499 0.083836 247 254 255
3.191000 0.799947 0.086483 247 255 255
3.187125 0.811727 0.083278 248 254 255
3.187333 0.831821 0.083826 248 255 255
3.187167 0.852830 0.085854 249 255 255
3.188000 0.871059 0.085991 249 255 255
3.186667 0.888631 0.085771 209 213 215
3.188000 0.904823 0.084521 150 126 137
3.202000 0.916557 0.085705 126 66 86
3.212750 0.925115 0.087461 131 55 78
3.379857 0.991232 0.086094 143 44 71
3.392667 1.003999 0.086486 140 31 58
3.409000 1.098025 0.080666 250 255 255
3.410000 1.098378 0.091913 250 255 255
3.409000 1.106345 0.080666 250 255 255
3.410667 1.112179 0.088009 250 255 255
3.409000 1.136851 0.077893 250 255 255
3.412455 1.129028 0.085983 250 255 255
3.409000 1.145171 0.077893 250 255 255
3.412300 1.150274 0.086717 250 255 255
3.414727 1.170268 0.084813 250 255 255
3.412786 1.191788 0.085602 250 255 254
3.412167 1.210193 0.086697 251 255 254
3.416750 1.231447 0.084612 251 255 254
3.419667 1.252080 0.085052 253 255 254
3.418250 1.270983 0.084837 253 255 254
3.419667 1.291046 0.085053 253 255 254
3.421250 1.311196 0.085293 253 254 254
3.421667 1.330868 0.085355 254 254 254
3.424167 1.351451 0.085733 254 254 254
3.425333 1.371478 0.085908 254 254 254
3.428000 1.386610 0.086311 254 254 254
3.431000 1.396328 0.083972 254 254 254
3.427700 1.411028 0.084035 254 254 254
3.431500 1.406333 0.088239 254 254 254
3.425273 1.430767 0.086407 254 254 254
3.427333 1.450488 0.086211 253 254 254
3.427692 1.469546 0.085405 253 254 254
3.431000 1.474551 0.075591 254 254 254
3.429727 1.491210 0.084542 253 254 254
3.431000 1.485726 0.075591 254 254 254
3.429500 1.511069 0.086073 254 254 254
3.431000 1.504350 0.077453 254 254 254
3.428545 1.531243 0.085888 254 254 254
3.429750 1.549356 0.080992 254 254 254
3.432125 1.554036 0.087636 254 254 254
3.433167 1.570635 0.084296 254 254 254
3.439667 1.590737 0.085274 254 254 254
3.439938 1.610484 0.085317 253 254 254
3.437417 1.628778 0.084936 253 254 254
3.439313 1.649381 0.085220 253 254 254
3.437688 1.670918 0.084976 253 255 254
3.440333 1.691959 0.085373 253 254 254
3.440867 1.711308 0.086015 253 254 254
3.441000 1.730700 0.084826 254 254 254
3.443167 1.749603 0.085805 253 254 254
3.446733 1.770707 0.085778 253 255 254
3.447846 1.790705 0.087155 253 254 254
3.449000 1.810701 0.080655 252 253 254
3.451000 1.809135 0.092039 252 254 254
3.450000 1.837790 0.095261 96 75 90
3.451583 1.831227 0.085658 157 139 156
3.447800 1.852221 0.093800 82 70 70
3.453778 1.851282 0.084578 87 72 77
3.448143 1.868801 0.090158 86 74 72
3.452429 1.871379 0.081966 82 70 68
3.338750 -1.729920 0.110735 96 101 92
3.341000 -1.706460 0.103589 99 105 92
3.350000 -1.717684 0.096269 102 108 94
3.340600 -1.690385 0.104532 99 105 93
3.327000 -1.660773 0.106108 99 107 97
3.334111 -1.672131 0.106364 99 107 96
3.326300 -1.652273 0.105993 101 108 98
3.332200 -1.644348 0.105338 99 105 97
3.326750 -1.624215 0.102021 99 104 96
3.331500 -1.630979 0.108870 100 106 97
3.325818 -1.609588 0.103710 101 108 99
3.330000 -1.608517 0.114699 100 105 98
3.323077 -1.589276 0.104847 101 109 99
3.319072 -1.568527 0.105585 102 107 100
3.319857 -1.550509 0.104178 102 107 100
3.316769 -1.530333 0.104647 103 110 102
3.314714 -1.509707 0.105257 104 111 101
3.385750 -1.502400 0.104694 167 172 169
3.408000 -1.508387 0.105468 166 172 170
3.423429 -1.507592 0.106320 168 174 172
3.442500 -1.506574 0.105331 164 170 168
3.462583 -1.502695 0.105655 159 165 162
3.479500 -1.499899 0.102614 157 166 161
3.317267 -1.490557 0.104342 106 111 103
3.345000 -1.492135 0.106332 125 130 124
3.358250 -1.493599 0.105759 163 169 164
3.486000 -1.495333 0.105744 156 164 157
3.501333 -1.487976 0.105973 157 163 158
3.517833 -1.481765 0.105643 156 162 160
3.526200 -1.474913 0.103464 158 162 163
3.533909 -1.467315 0.107055 152 156 155
3.540059 -1.449565 0.104617 141 144 143
3.546000 -1.428860 0.104154 138 143 139
3.546917 -1.408982 0.104293 135 142 134
3.545667 -1.388109 0.104103 132 138 130
3.545200 -1.369920 0.105191 130 138 129
3.544545 -1.350707 0.104462 126 136 127
3.539231 -1.328194 0.105357 126 133 125
3.537500 -1.309192 0.105758 124 131 123
3.537500 -1.290188 0.106587 123 130 122
3.530000 -1.262101 0.101734 122 129 121
3.532556 -1.271127 0.105329 124 131 123
3.528917 -1.247806 0.104454 123 130 122
3.525222 -1.228996 0.106774 122 129 122
3.527643 -1.208973 0.105496 122 128 124
3.527818 -1.190214 0.105072 122 128 124
3.519222 -1.169047 0.105855 121 128 121
3.517750 -1.148355 0.105630 121 128 120
3.518000 -1.128332 0.105667 122 129 122
3.516111 -1.110388 0.105378 122 129 122
3.514667 -1.089757 0.105159 124 131 124
3.509000 -1.073365 0.098559 124 131 123
3.513875 -1.068658 0.105756 124 131 123
3.510000 -1.039323 0.104444 124 131 123
3.513222 -1.051925 0.104937 124 131 123
3.507091 -1.028939 0.103999 125 133 123
3.507667 -1.009864 0.104087 123 132 124
3.505929 -0.988421 0.105455 125 132 125
3.501500 -0.967753 0.106002 126 132 126
3.498083 -0.949504 0.105474 127 134 128
3.499438 -0.929936 0.105683 127 135 129
3.498000 -0.909498 0.105463 127 134 128
3.497688 -0.889416 0.105416 128 135 127
3.493333 -0.868145 0.104743 129 136 128
3.489222 -0.847950 0.105060 130 136 130
3.491667 -0.856254 0.101637 132 139 132
3.485750 -0.828936 0.106422 131 138 133
3.485667 -0.809001 0.106406 131 140 133
3.486333 -0.789272 0.106512 132 140 132
3.484778 -0.768949 0.106272 132 139 132
3.482917 -0.748568 0.105983 134 141 133
3.480556 -0.728086 0.105616 135 142 134
3.475445 -0.709799 0.104824 136 143 135
3.476667 -0.690243 0.105015 136 144 136
3.476000 -0.670242 0.104914 138 145 138
3.467000 -0.646953 0.102812 139 145 142
3.473667 -0.656478 0.108328 139 145 141
3.465750 -0.630419 0.104034 141 147 145
3.466700 -0.608725 0.109126 141 147 143
3.465900 -0.589902 0.108437 141 147 143
3.464273 -0.569438 0.109260 142 148 144
3.460385 -0.549015 0.105107 143 149 146
3.458734 -0.528656 0.105626 145 151 149
3.459615 -0.509383 0.104550 147 153 151
3.460125 -0.488865 0.105278 149 156 153
3.456250 -0.468473 0.104671 148 158 151
3.457000 -0.448874 0.104788 150 159 151
3.455273 -0.429397 0.105287 150 157 151
3.452750 -0.408800 0.106938 152 161 157
3.455417 -0.389477 0.104542 152 160 158
3.449000 -0.363281 0.100728 155 160 163
3.453546 -0.371307 0.107062 154 160 160
3.449600 -0.348181 0.103070 156 162 162
3.451250 -0.350924 0.110920 155 161 161
3.449200 -0.323399 0.105256 158 164 164
3.451714 -0.334308 0.107579 158 164 164
3.447333 -0.309692 0.106087 160 168 167
3.446084 -0.289898 0.105891 160 169 168
3.445556 -0.270187 0.105811 161 169 170
3.443333 -0.250329 0.105462 162 172 173
3.442250 -0.227788 0.105291 165 172 175
3.442111 -0.208150 0.105269 167 175 175
3.440417 -0.188396 0.105002 168 176 177
3.439111 -0.168686 0.104799 169 178 180
3.441833 -0.149249 0.105226 169 179 181
3.440444 -0.129546 0.105009 171 180 182
3.437750 -0.109797 0.104586 174 182 185
3.437444 -0.090183 0.104537 175 184 186
3.438250 -0.070615 0.104663 174 184 186
3.439000 -0.048234 0.104782 177 186 189
3.434889 -0.028535 0.104139 177 187 189
3.434154 -0.009154 0.104883 179 188 191
3.436300 0.011174 0.105477 181 189 192
3.435625 0.030208 0.107047 184 192 195
3.433500 0.049783 0.106714 185 192 196
3.426455 0.065990 0.106365 186 193 195
2.673667 0.093382 0.097859 132 138 137
2.684600 0.105421 0.098435 193 199 199
2.696800 0.115923 0.100102 221 226 226
2.043000 0.123812 0.110972 90 99 97
2.705364 0.129249 0.101705 216 220 220
2.713667 0.136929 0.101864 240 243 244
2.705750 0.147215 0.108736 76 80 80
2.719889 0.151200 0.102659 237 238 239
