# .PCD v0.7 - Point Cloud Data file format
VERSION 0.7
FIELDS x y z
SIZE 4 4 4
TYPE F F F
COUNT 1 1 1
WIDTH 1508
HEIGHT 1
VIEWPOINT 0 0 0 1 0 0 0
POINTS 1508
DATA ascii
1.5458071 3.2411432 0.089076519
1.7404301 3.2734108 0.070342951
2.1321619 3.2794807 0.051343042
1.558297 3.2673311 0.025651239
1.7369864 3.2669339 0.0045849788
2.1432235 3.296495 -0.018391794
1.5599707 3.2708406 -0.038329229
1.9312141 3.2767198 -0.062737904
2.1383493 3.2889979 -0.087929592
1.5645974 3.2805414 -0.10285521
1.9303467 3.2752481 -0.13010357
2.3254244 3.2555554 -0.16054805
1.7295223 3.2528954 -0.16961353
1.2047865 2.0441792 -0.1232735
2.3326955 3.2657349 -0.23217788
1.0907153 2.051337 -0.14812273
1.201467 2.038547 -0.16488418
2.3507683 3.291158 -0.30545494
1.0837004 2.0381439 -0.18819839
1.2988752 1.9978017 -0.20826858
2.3496001 3.2895224 -0.37685904
1.0726738 2.0173211 -0.22672224
1.3031894 2.0044372 -0.25128642
1.2941055 1.9904653 -0.2915529
1.2846702 1.9759529 -0.33110857
1.1595728 1.9673077 -0.36115837
1.1702902 1.9854113 -0.40517029
1.1606293 1.9690214 -0.44212916
1.1308638 1.9184474 -0.46998149
1.0091023 1.8968871 -0.4910683
0.74432337 1.3990439 -0.38997811
0.68133074 1.28048 -0.38230798
0.64219093 1.2068198 -0.38415721
1.9267491 3.2456605 0.47301286
1.9347336 3.2591107 0.40785706
1.9380338 3.2647996 0.34125066
1.9469079 3.2797489 0.27527016
1.7390592 3.246052 0.20040676
1.734741 3.2381277 0.1348305
2.1350503 3.2614565 0.12025681
1.5629127 3.2506864 0.0894733
1.7469281 3.2608764 0.07019119
2.1424541 3.2727661 0.051343042
1.5616211 3.2479999 0.025537863
1.7491301 3.2649868 0.0045899353
2.1491876 3.2830522 -0.018354375
1.5633061 3.2515047 -0.038160004
1.9394571 3.2671974 -0.06267193
2.1508617 3.2856095 -0.088019222
1.5766283 3.2792134 -0.10296836
1.9345049 3.2588549 -0.12969315
2.3449738 3.2612138 -0.1611896
1.7435068 3.2544901 -0.16998145
1.2010072 2.0232093 -0.12223585
2.3429437 3.2583904 -0.23217788
1.0858434 2.026788 -0.14659569
1.213976 2.0450563 -0.16571833
2.3587677 3.2805183 -0.3051537
1.0806844 2.0171583 -0.18657319
1.3073276 1.9970452 -0.20861687
2.3645728 3.2885919 -0.37760162
1.0752465 2.0069239 -0.22593227
1.2920494 1.9737065 -0.24794151
1.2873054 1.9664595 -0.28862762
1.288702 1.968593 -0.3305521
1.1637307 1.9602578 -0.36053351
1.1745106 1.9783373 -0.40447769
1.1668094 1.9653655 -0.44212916
1.1268951 1.8980584 -0.4658516
1.0334787 1.928076 -0.49998063
0.74687982 1.3932754 -0.38902229
0.67621207 1.2612888 -0.37721056
0.6405201 1.194615 -0.38091078
1.9467863 3.2521987 0.47500241
1.9589219 3.2724719 0.41042489
1.9602177 3.2747662 0.34304106
1.9609647 3.2760143 0.27555811
1.752844 3.24317 0.20062412
1.7541999 3.2458141 0.13541736
2.1535959 3.2636204 0.12062683
1.5783085 3.2521312 0.089671686
1.7683755 3.2720435 0.070570596
2.1698554 3.28826 0.051710527
1.5909792 3.2782395 0.025821302
1.7648888 3.2655919 0.0045998488
2.1788306 3.3018618 -0.018504053
1.5891838 3.2745402 -0.038498454
1.9596355 3.2737935 -0.062935814
2.1739023 3.2943931 -0.088467382
1.593874 3.2842042 -0.10330782
1.9628618 3.2791834 -0.13078761
2.3616014 3.2590699 -0.16151036
1.7611228 3.2586238 -0.17053333
1.2248278 2.0462139 -0.12389609
2.3736157 3.2756503 -0.23402607
1.108449 2.050889 -0.14863174
1.2235128 2.0440171 -0.16599637
2.3824773 3.2880001 -0.30665988
1.1032351 2.0412421 -0.18917352
1.3168331 1.9955661 -0.20896514
2.383621 3.2895784 -0.37871549
1.0882729 2.0134745 -0.22711723
1.3168029 1.9955204 -0.25128642
1.3098108 1.9849242 -0.29204047
1.3002719 1.9704688 -0.33166507
1.1769955 1.966149 -0.36240804
1.1858008 1.9807795 -0.4058629
1.184091 1.9779234 -0.4459275
1.099668 1.8368293 -0.45180997
1.0368289 1.917415 -0.49819815
0.75567669 1.3973616 -0.39093393
0.68635064 1.2690084 -0.38026902
0.65222263 1.2058077 -0.38523933
1.964846 3.2552354 0.47649455
1.9688478 3.2618651 0.4099969
1.9680898 3.2607379 0.34232491
1.9750203 3.2722206 0.27584606
1.7723669 3.2507508 0.20149356
1.7660846 3.2393627 0.13541736
2.1655433 3.2557051 0.12062683
1.5902175 3.2463245 0.089671686
1.7746131 3.2550061 0.070342951
2.1752474 3.2702944 0.051553033
1.5924263 3.2508337 0.025651239
1.7768459 3.2591014 0.0045998488
2.1820569 3.2805316 -0.018429214
1.5923773 3.2507336 -0.038286924
1.9695547 3.263165 -0.062869847
2.1771033 3.2730844 -0.088108853
1.6041415 3.2747495 -0.10319467
1.9666044 3.2582769 -0.13024038
2.3829587 3.2633035 -0.16215192
1.7730545 3.252147 -0.17053333
1.2219983 2.024611 -0.12285844
2.3808956 3.2604785 -0.23356402
1.1064039 2.0292885 -0.14735921
1.2165625 2.015605 -0.16405003
2.3898082 3.2728033 -0.30605742
1.1030755 2.0231836 -0.18787335
1.3241384 1.9907262 -0.20896514
2.3956618 3.2808199 -0.37871549
1.0918344 2.0024829 -0.22632726
1.3130921 1.9741192 -0.24919586
1.3060831 1.9635818 -0.28960273
1.2943227 1.945901 -0.32832617
1.1882774 1.9685868 -0.36365771
1.1910168 1.9730474 -0.40517029
1.1893029 1.9702082 -0.44516784
1.0578492 1.7523718 -0.43198651
1.045717 1.9170252 -0.49908939
0.74963242 1.3741241 -0.38519895
0.6872921 1.2596935 -0.37823004
0.64741528 1.1865073 -0.37982866
1.9891444 3.2683544 0.47947887
1.9993986 3.285203 0.41384867
2.0007393 3.2875352 0.34590572
1.9952968 3.2785921 0.2769978
1.7861943 3.2477326 0.20171092
1.7895032 3.2538834 0.13629764
2.179688 3.2510669 0.12075017
1.6074219 3.2512281 0.08996927
1.800022 3.2730098 0.070874125
2.2050376 3.2888765 0.051973015
1.6220579 3.2808316 0.025934678
1.7964895 3.2665865 0.0046196757
2.2230232 3.3157024 -0.018672442
1.6237806 3.2843158 -0.038752288
1.9898185 3.2695904 -0.063133724
2.2180355 3.3082631 -0.089274079
1.6249937 3.2867694 -0.10376043
1.9993162 3.2851968 -0.13160846
2.3972721 3.257767 -0.16231231
1.7849623 3.2456267 -0.17053333
1.9832554 3.2588062 -0.19819225
2.4164979 3.2838936 -0.23587425
1.1273003 2.0497041 -0.14914076
1.2467611 2.0486281 -0.16710858
2.4183352 3.2865107 -0.30816609
1.1258534 2.0470734 -0.19047368
1.3247687 1.9759305 -0.20792031
2.4218333 3.2912645 -0.38094324
1.1087579 2.0159063 -0.2283022
1.3358259 1.9924225 -0.25212264
1.3287475 1.9818648 -0.29301554
1.3279161 1.9806249 -0.33500397
1.1934305 1.9608433 -0.36303288
1.2043853 1.9787645 -0.40724808
1.2026416 1.9758999 -0.44744685
1.0235664 1.6816192 -0.41546693
1.0527363 1.9131796 -0.49908939
0.76777208 1.3951876 -0.39188975
0.69749939 1.2673317 -0.3812885
0.66104406 1.2009944 -0.38523933
1.989032 3.2451696 0.47699195
1.9972397 3.2585607 0.41128081
2.004812 3.2710433 0.34483147
2.0097566 3.2791107 0.27757367
1.8002601 3.2490923 0.20214565
1.7977794 3.2447491 0.13615093
2.1966014 3.2541444 0.12112019
1.617628 3.2461622 0.08996927
1.8064191 3.2603424 0.070722364
2.206408 3.2686725 0.051763024
1.618085 3.2470794 0.025707927
1.8067429 3.2609267 0.0046196757
2.2110498 3.2755489 -0.018485343
1.623387 3.257719 -0.038498454
2.0021703 3.2667329 -0.063199699
2.2194681 3.2880206 -0.088915549
1.633528 3.2780695 -0.10364728
1.9970931 3.2584491 -0.13078761
2.4217687 3.2694895 -0.16327463
1.8048325 3.2574787 -0.17145315
1.3776953 2.2478423 -0.13697056
2.417295 3.2634501 -0.23495016
1.1259953 2.0321856 -0.14812273
1.2448502 2.0310926 -0.16599637
2.421526 3.2692814 -0.30726236
1.1206857 2.0226028 -0.18852343
1.3331991 1.9750615 -0.20826858
2.4345317 3.2868402 -0.38131452
1.1112272 2.0054498 -0.22751223
1.326499 1.9651356 -0.24919586
1.3260821 1.9645181 -0.29106537
1.3164026 1.9501784 -0.3305521
1.1975201 1.9537159 -0.36240804
1.2064781 1.9682535 -0.4058629
1.2047385 1.9654155 -0.4459275
1.0165718 1.6583747 -0.41051108
1.0606321 1.9132733 -0.49998063
0.75143516 1.3554018 -0.38137564
0.69585061 1.254986 -0.37823004
0.66107893 1.1921762 -0.38307506
2.0217774 3.2716205 0.48196578
2.0321672 3.2884333 0.4159885
2.0314474 3.2873967 0.34733802
2.0238588 3.2751164 0.27786162
1.8257964 3.2668779 0.20366718
1.8213603 3.2590742 0.13703121
2.2197585 3.2625997 0.12173689
1.6367013 3.2545013 0.090366051
1.8281119 3.2711551 0.071101777
2.2408721 3.2936323 0.052288003
1.6497434 3.2804351 0.026019709
1.8245368 3.2647579 0.0046345461
2.2567909 3.3170297 -0.018765992
1.6532867 3.2874806 -0.038921513
2.0225396 3.2729816 -0.063463576
2.2539995 3.3129268 -0.089811876
1.654514 3.2899208 -0.10421304
2.0237329 3.2749126 -0.13174526
2.4385171 3.2669973 -0.16359541
1.8187089 3.2543299 -0.1716371
2.0263901 3.2792127 -0.20026755
2.4531262 3.2865701 -0.23726039
1.1470684 2.0524373 -0.14990428
1.2627743 2.0434887 -0.16738664
2.4549644 3.2891524 -0.30997351
1.1436512 2.0463228 -0.19112375
2.210139 3.2484608 -0.34339938
2.4560912 3.2906621 -0.38279969
1.1302218 2.0222108 -0.22988214
1.3515946 1.9865727 -0.25254077
1.3422067 1.9727745 -0.29301554
1.3302261 1.9551654 -0.33222154
1.2150578 1.9661181 -0.36553225
1.2261108 1.9839257 -0.41001847
1.2201924 1.9743494 -0.44896621
0.9938364 1.6080281 -0.39894739
1.0695405 1.9127766 -0.50087184
0.76966804 1.376369 -0.38806644
0.70610964 1.2625546 -0.3812885
0.66356421 1.1863844 -0.38199294
2.0215602 3.2484043 0.47947887
2.0277789 3.2583969 0.41299272
2.0333455 3.2674687 0.34590572
2.034138 3.2687423 0.27786162
1.8360505 3.2611258 0.20366718
1.825707 3.2428865 0.13659108
2.2299974 3.25561 0.12173689
1.6451097 3.2457767 0.090266854
1.8344555 3.258426 0.070950009
2.2331264 3.2601781 0.051868021
1.6437662 3.2431259 0.025764614
1.832822 3.2555244 0.0046295892
2.2491171 3.2835233 -0.018616311
1.6527568 3.2608643 -0.038667675
2.0328121 3.2666116 -0.063463576
2.2530968 3.2893331 -0.089363709
1.661226 3.2775738 -0.10398673
2.0255628 3.2549622 -0.13119803
2.4487686 3.2593203 -0.16359541
1.830884 3.2520821 -0.17182107
2.0303504 3.2626557 -0.19964497
2.4514458 3.2628839 -0.23610528
1.145677 2.0349097 -0.14888625
1.2607547 2.02596 -0.16627443
2.4533062 3.2654788 -0.3084673
1.1324711 2.0114539 -0.18819839
1.3578713 1.9823787 -0.21000996
2.4712014 3.2892983 -0.38354224
1.1268048 2.001308 -0.22790721
1.3443406 1.9626249 -0.2500321
1.330449 1.9423444 -0.28911516
1.3341234 1.9477087 -0.33166507
1.2191411 1.9589368 -0.36490741
1.2136025 1.9499617 -0.40378511
1.2222388 1.963838 -0.44744685
1.0030195 1.6115434 -0.40059933
1.0659755 1.8924196 -0.4964157
0.77017546 1.3671761 -0.3861548
0.70437682 1.2502205 -0.37823004
0.66728806 1.1842939 -0.38199294
2.0503278 3.267869 0.48345795
2.0587311 3.2812624 0.41684446
2.0601287 3.2836173 0.34841228
2.0524657 3.2714033 0.27872545
1.8499631 3.2578478 0.20388453
1.8553444 3.2674572 0.1379115
2.2510006 3.2605755 0.12223025
1.6624577 3.2504056 0.090564437
1.8562596 3.269069 0.071329422
2.2677839 3.2848859 0.052393001
1.6774985 3.2798131 0.026104741
1.8526421 3.2626982 0.0046494165
2.2884068 3.3147583 -0.018840831
1.6774467 3.279712 -0.038963817
2.0490222 3.2659149 -0.063595518
2.2833133 3.3073804 -0.090080768
1.6805106 3.2857025 -0.10443935
2.0544758 3.2746072 -0.13229249
2.4775853 3.2726295 -0.16471812
1.8447641 3.2488244 -0.17200503
2.0529099 3.2721112 -0.20068263
2.4850817 3.2825315 -0.23818448
1.159041 2.0411108 -0.14964977
1.2766546 2.0348461 -0.16738664
2.4917407 3.2914467 -0.31178093
1.1516476 2.0280905 -0.19014864
2.2525742 3.2628551 -0.34653386
2.4976642 3.2992713 -0.38576999
1.1439602 2.0144708 -0.22988214
2.2578149 3.2704461 -0.41769573
1.3510926 1.9570583 -0.29204047
1.3502548 1.9558448 -0.333891
1.2326123 1.9644953 -0.36678192
1.2395865 1.975534 -0.41001847
1.2356904 1.9693247 -0.44972587
0.99643779 1.5879654 -0.39564347
1.0613471 1.8681569 -0.4910683
0.78093755 1.3744752 -0.38902229
0.71277624 1.2543563 -0.38026902
0.67542946 1.1885362 -0.38415721
2.0559263 3.2502697 0.48196578
2.0643656 3.2636116 0.41556054
2.0678906 3.2693105 0.3476961
2.0665751 3.2672305 0.2790134
1.8658612 3.2579772 0.20431925
1.8653213 3.2571664 0.1377648
2.267503 3.2588668 0.12247694
1.6798615 3.254951 0.090862021
1.8662415 3.2587731 0.071253538
2.2775238 3.2732689 0.052340504
1.6876738 3.2700882 0.026076397
1.8626002 3.2524149 0.0046444596
2.2936869 3.2964985 -0.0187847
1.6821187 3.2593243 -0.038794596
2.0673926 3.268523 -0.063793428
2.2908521 3.2924244 -0.089901507
1.6870408 3.2688618 -0.10409988
2.064327 3.2636766 -0.13215569
2.4968357 3.2730598 -0.16519928
1.8646022 3.2559109 -0.17274089
2.0627537 3.261189 -0.2004751
2.494674 3.2702262 -0.23795345
1.1645305 2.0333848 -0.14939526
1.281971 2.0267811 -0.16710858
2.4916921 3.2664354 -0.31027475
1.1590732 2.0238559 -0.19014864
2.2736218 3.2676609 -0.34792694
2.5024931 3.2805951 -0.38465613
1.151336 2.0102646 -0.22988214
2.2766027 3.271945 -0.41895008
1.3469188 1.9357985 -0.28960273
1.3483648 1.9378768 -0.33166507
1.2376921 1.9566255 -0.36615708
1.2362883 1.9543306 -0.4065555
1.2408005 1.9614636 -0.44896621
1.0001589 1.5809951 -0.3948175
1.0313531 1.7999697 -0.47413492
0.77824551 1.3581237 -0.38519895
0.7173689 1.2517353 -0.38026902
0.67786628 1.1827116 -0.38307506
2.0806291 3.2627912 0.4849501
2.0870051 3.2727897 0.41770041
2.0862854 3.2717867 0.34877035
2.0914063 3.2798178 0.28074104
1.8837826 3.2614925 0.20497134
1.8832445 3.2606921 0.13820493
2.2863185 3.2603545 0.12284695
1.6917802 3.2487721 0.090862021
1.8821732 3.2588375 0.071405306
2.3055804 3.2878225 0.052707989
1.7051903 3.2745237 0.026161429
1.88051 3.2559576 0.00465933
2.3195333 3.3077195 -0.01889696
1.701443 3.2673275 -0.038963817
2.077208 3.2575514 -0.063727461
2.3143842 3.3003769 -0.090349667
1.7063974 3.2768419 -0.1045525
2.0827231 3.2662005 -0.13256611
2.5161226 3.2733929 -0.16568045
1.8745248 3.2455947 -0.17255692
2.0832834 3.2670791 -0.20130521
2.521245 3.2800572 -0.23933959
1.1759685 2.0360165 -0.14990428
1.2958272 2.0321622 -0.16794273
2.5206625 3.2794178 -0.31238341
1.1664833 2.0195942 -0.19014864
2.2878709 3.2625682 -0.34827524
2.5290632 3.2903471 -0.38688385
1.1567054 2.0025845 -0.22948715
2.3022838 3.2831213 -0.42145875
2.3159409 3.3025966 -0.49534741
2.3038244 3.2853184 -0.56371933
1.2491039 1.9587383 -0.36740676
1.2561527 1.969716 -0.41071108
1.2543162 1.9668362 -0.45124522
0.99963331 1.5674192 -0.39233956
0.94429433 1.6341164 -0.43135583
0.78321803 1.355262 -0.38519895
0.71808088 1.2424001 -0.37823004
0.68026948 1.1768852 -0.38199294
2.0887249 3.2528987 0.48445272
2.0994253 3.2695634 0.41812837
2.098706 3.2685688 0.34912843
2.0973885 3.2665169 0.28016514
1.8960282 3.2590108 0.20518869
1.895489 3.258215 0.13835165
2.3103848 3.272753 0.123587
1.7131265 3.2646863 0.091457188
1.8944129 3.2563651 0.071481183
2.3182046 3.2838306 0.052760486
1.7173277 3.2726924 0.026189772
1.8947525 3.2569487 0.0046692435
2.3322201 3.303684 -0.01891567
1.7154162 3.2690499 -0.03904843
2.1025579 3.2745676 -0.064189255
2.3293538 3.2996235 -0.090528935
1.7185414 3.2750053 -0.10466565
2.1037736 3.2764611 -0.13325015
2.5386221 3.2812779 -0.16648239
1.8987769 3.2638664 -0.17384467
2.1000118 3.2706022 -0.20192781
2.5339808 3.2752788 -0.23957062
1.1843663 2.0357623 -0.15015878
1.3000489 2.0247235 -0.16766468
1.1768318 2.0228117 -0.19079871
2.311898 3.2748966 -0.35036489
1.1669943 2.0058217 -0.23027712
2.3102925 3.2726223 -0.42104065
2.3217256 3.2888179 -0.49437231
2.3369787 3.3104246 -0.56928414
1.2573861 1.9581289 -0.36803162
1.2580771 1.9591299 -0.4093259
1.256245 1.9562769 -0.44972587
1.0087823 1.5708574 -0.39399153
0.8964597 1.5401483 -0.40729257
0.78942585 1.3561517 -0.3861548
0.72198039 1.2401381 -0.37823004
0.68396342 1.1747423 -0.38199294
2.1071033 3.2552168 0.48594487
2.1157172 3.2685239 0.41898432
2.1193311 3.2742326 0.35056075
2.124522 3.2822523 0.28218073
1.9099814 3.2554846 0.20540605
1.9114636 3.2581413 0.13864508
2.3223643 3.2642632 0.123587
1.7194676 3.2477834 0.091159604
1.9124066 3.2597482 0.071708836
2.3371809 3.285089 0.05291798
1.7274396 3.262841 0.026161429
1.9107252 3.2568824 0.0046791569
2.3466318 3.298373 -0.01893438
1.7292578 3.2662754 -0.039090738
2.1123724 3.2634821 -0.06412328
2.3460684 3.297581 -0.090708196
1.7342751 3.2757521 -0.10489196
2.1092515 3.2586603 -0.13283972
2.5580034 3.2814078 -0.16696355
1.906683 3.2499924 -0.17347674
2.1163263 3.2695904 -0.20234287
2.5631542 3.2880154 -0.24118778
1.1918199 2.0314078 -0.15015878
1.3031247 2.0132453 -0.16710858
1.5154566 1.9440984 -0.18616484
1.1862553 2.0219233 -0.19112375
2.3238854 3.2664013 -0.35036489
1.5009682 1.925512 -0.22760059
1.1723239 1.9980978 -0.22988214
2.326884 3.2706158 -0.42187688
2.338367 3.2867563 -0.49534741
2.3399112 3.2889264 -0.56705821
1.2602606 1.946874 -0.36678192
1.269531 1.96112 -0.41071108
1.269809 1.9615495 -0.45200488
1.0102792 1.5605786 -0.39233956
0.86261946 1.469594 -0.38946795
0.7943911 1.3532492 -0.3861548
0.72456264 1.234148 -0.37721056
0.6863147 1.1689068 -0.38091078
2.1276958 3.2607677 0.48793441
2.1320293 3.2674091 0.41984025
2.1356716 3.2731159 0.3512769
2.1321776 3.267761 0.28160483
1.9300356 3.2622123 0.20627551
1.9274632 3.2579942 0.1389385
2.3529501 3.2817233 0.12457372
1.7464315 3.2696767 0.091953158
1.9304502 3.2630432 0.071936481
2.3655195 3.2992542 0.053285468
1.7488093 3.2741287 0.026303148
1.9246861 3.2533002 0.0046841134
2.3726897 3.3092544 -0.019046638
1.746871 3.2704997 -0.039217655
2.1396182 3.2791643 -0.064585075
2.3627992 3.2954597 -0.090887465
1.7500372 3.2764273 -0.10511826
2.145211 3.2877357 -0.13434459
2.5823572 3.2877259 -0.16776548
1.9307892 3.2636161 -0.17458051
2.13921 3.2785389 -0.20338053
1.2073879 2.0407684 -0.15117681
1.3104949 2.0084555 -0.16710858
1.5373541 1.9573514 -0.18797226
1.2017783 2.0312867 -0.19242391
2.3497734 3.2772923 -0.35245454
1.5080155 1.9199977 -0.22760059
1.1877469 2.0074906 -0.23146208
2.3550816 3.2846961 -0.42480367
2.3665917 3.3007493 -0.49876025
2.3681066 3.3028622 -0.57095361
1.2825015 1.9654031 -0.37115583
1.2810162 1.9630523 -0.41209629
1.2726976 1.9503045 -0.45048556
1.0181311 1.5601429 -0.39316553
0.86005491 1.4529998 -0.38590303
0.7973671 1.3469861 -0.38519895
0.73302209 1.2381407 -0.37924951
0.6964801 1.1763242 -0.38415721
2.1357498 3.2507503 0.48743701
2.1422837 3.260695 0.41984025
2.1503189 3.2730496 0.35199308
2.1533861 3.2777183 0.28304455
1.93823 3.2527018 0.20605814
1.9356428 3.2484889 0.13879178
2.353889 3.2613473 0.12408036
1.7453246 3.2430468 0.091357991
1.9406918 3.2569625 0.071936481
2.3711913 3.28532 0.053180471
1.7534 3.2580516 0.026218116
1.9410397 3.2575462 0.0046989839
2.3783925 3.2952974 -0.019009219
1.7552415 3.2614734 -0.03917535
2.1411252 3.2590559 -0.06432119
2.3754809 3.2912633 -0.090977095
1.7660064 3.281476 -0.10545772
2.1423588 3.2609334 -0.13352376
2.5877159 3.2733264 -0.16744471
1.9308059 3.2403712 -0.1736607
2.1451125 3.265125 -0.20296547
1.5453416 1.9547771 -0.14415821
1.2076629 2.0266776 -0.15041329
2.1471918 3.2682896 -0.27248988
1.5434957 1.9525121 -0.18797226
1.2020314 2.0172267 -0.19144879
2.3600576 3.2698941 -0.35245454
1.5263892 1.9308727 -0.22945704
1.1899725 1.9969106 -0.23067211
2.360733 3.2708299 -0.42396745
2.3699791 3.2836404 -0.49729759
2.3738348 3.2889826 -0.56984067
1.2821611 1.9514585 -0.36928129
1.2828504 1.9524332 -0.41071108
1.2831314 1.9528608 -0.45200488
1.018729 1.5503949 -0.39151359
0.85263455 1.4301943 -0.38055566
0.79761672 1.3378021 -0.38328731
0.7349273 1.2325096 -0.37823004
0.69622755 1.1675155 -0.38199294
2.1586075 3.2594459 0.48992395
2.1673958 3.272716 0.4224081
2.1667001 3.2717896 0.35270923
2.1719937 3.2797828 0.28390837
1.9583672 3.2592704 0.20692758
1.9578296 3.2585046 0.13952537
2.386992 3.2817976 0.12519042
1.7724627 3.2647419 0.092151545
1.9608551 3.2635398 0.07224001
2.3973324 3.2960145 0.053495459
1.7767804 3.2726948 0.02638818
1.9550263 3.2538388 0.0047039404
2.406924 3.3092015 -0.019140188
1.7805424 3.2796242 -0.039471492
2.1663055 3.2711937 -0.064717017
2.3992891 3.2987046 -0.091425262
1.7818372 3.2820091 -0.10568402
2.1719544 3.2797236 -0.13461821
2.6121464 3.2794511 -0.16824666
1.9632486 3.2675235 -0.17550032
2.1769156 3.2872155 -0.20483324
1.5699117 1.9709649 -0.14577538
1.2253629 2.0393462 -0.15168582
1.3329484 2.0127966 -0.16822079
1.5605817 1.9593215 -0.18917722
1.2176301 2.0264769 -0.19274896
2.38609 3.2805574 -0.35454419
1.5433813 1.9377265 -0.23094219
1.2054842 2.0061831 -0.23225206
2.3890848 3.2846751 -0.42689425
2.3936746 3.2909856 -0.49973533
2.4021833 3.3026836 -0.57373601
1.3002129 1.9632159 -0.3724055
1.2943485 1.9542872 -0.41209629
1.2924489 1.951419 -0.45276457
1.0200822 1.5401247 -0.38986161
0.86188889 1.4337437 -0.38233811
0.80651718 1.3415275 -0.38519895
0.73943973 1.2298077 -0.37823004
0.70050204 1.164956 -0.38199294
2.1661325 3.2449102 0.48892918
2.1771684 3.2614424 0.42198011
2.1808891 3.2671397 0.35306731
2.184 3.2718 0.28390837
1.9661605 3.2452385 0.20649287
1.9697595 3.2513068 0.13952537
2.3919137 3.2633529 0.1248204
1.780575 3.2512093 0.091953158
1.9707311 3.2529106 0.072164126
2.4046679 3.2807539 0.053390462
1.7868421 3.2626524 0.026359836
1.9710844 3.2534935 0.0047138538
2.4119427 3.290679 -0.019084059
1.786787 3.2625518 -0.039344572
2.1738396 3.2565789 -0.064585075
2.4113634 3.2898886 -0.091425262
1.7919338 3.2719493 -0.10557087
2.1773021 3.2617662 -0.13420779
2.6266501 3.2729723 -0.16840704
1.9752115 3.2603059 -0.17550032
2.1867316 3.2758923 -0.20462571
1.5796245 1.9683121 -0.14600639
1.2266237 2.0245988 -0.1509223
2.1799531 3.2657375 -0.27360207
1.5752417 1.962921 -0.19008093
1.2188518 2.0117712 -0.19177383
2.4028091 3.2782178 -0.35524073
1.5729076 1.9600124 -0.23428379
1.2045785 1.988134 -0.23067211
2.4011078 3.2758965 -0.42689425
2.4080677 3.2853923 -0.50022286
2.4119303 3.2906621 -0.57317954
1.3008188 1.9485793 -0.37053096
1.3015027 1.9495301 -0.41209629
1.2995925 1.9466689 -0.45276457
1.0192008 1.5266105 -0.3873837
0.85905284 1.4172364 -0.37877318
0.80740178 1.3319193 -0.38328731
0.7439422 1.2270893 -0.37823004
0.70676363 1.1656735 -0.38307506
2.1918135 3.2611477 0.49241087
2.1962776 3.2677898 0.42369202
2.2022536 3.2768049 0.35485771
2.2031696 3.278168 0.28506011
1.9867479 3.2560933 0.20757967
1.98621 3.2553396 0.1399655
2.4163961 3.2751257 0.12556045
1.8043028 3.2701075 0.092647515
1.9892727 3.2603593 0.072467655
2.4315851 3.2957125 0.053757947
1.8067449 3.2745335 0.026501555
1.9833791 3.2506998 0.0047188108
2.441267 3.308835 -0.019233737
1.804757 3.2709305 -0.039513797
2.2130616 3.2928863 -0.065442689
2.433558 3.2983866 -0.091873422
1.8118621 3.283808 -0.10613663
2.2031479 3.2781355 -0.13516544
2.6494763 3.2802505 -0.16920897
1.9875255 3.2574956 -0.17568429
2.2103815 3.2888987 -0.2058709
1.6008555 1.9819791 -0.14739253
1.2433742 2.0377736 -0.15219483
2.2013311 3.2754323 -0.27499232
1.5989438 1.9796832 -0.19218959
1.2355487 2.0249484 -0.19339904
2.4249251 3.2866857 -0.35698211
1.5790573 1.9550613 -0.23428379
1.2170384 1.9945334 -0.23185708
2.4255581 3.2875438 -0.42940292
2.4254484 3.2873952 -0.5016855
2.4340148 3.2990057 -0.57596195
1.3113419 1.9510412 -0.37178066
1.3120162 1.9519709 -0.41348147
1.3100833 1.9490951 -0.45428389
1.0239918 1.523401 -0.3873837
0.8675645 1.4211873 -0.38055566
0.8156299 1.3360065 -0.38519895
0.74577796 1.2214448 -0.37721056
0.7064085 1.1568742 -0.38091078
2.1970735 3.2432346 0.49091873
2.2082398 3.2597182 0.42369202
2.2097802 3.2621145 0.35414156
2.2174075 3.2733738 0.28534806
1.9986687 3.2487895 0.20757967
2.002317 3.254847 0.14025894
2.4283838 3.2662473 0.12556045
1.8162763 3.2634726 0.092647515
2.0054002 3.2598591 0.072619423
2.4388752 3.2803586 0.053652953
1.8148443 3.2608993 0.026444867
2.0036638 3.2570362 0.0047386377
2.4462183 3.2902353 -0.019177608
1.8167334 3.2642939 -0.039513797
2.2183864 3.2748191 -0.065244779
2.438473 3.2798173 -0.091604523
1.8238857 3.2771451 -0.10613663
2.2173901 3.2733486 -0.13530225
2.6589584 3.2674177 -0.16904859
2.0078261 3.2638025 -0.17642014
2.2291422 3.2906969 -0.2064935
1.6055884 1.9730011 -0.14716151
1.2424679 2.0196028 -0.15117681
2.2155592 3.2706456 -0.27527037
1.606189 1.9738095 -0.19218959
1.2408732 2.0170107 -0.193074
2.4393325 3.2809737 -0.35733038
1.5962677 1.9616174 -0.23576896
1.2285122 1.9968399 -0.23264705
2.4423382 3.2850165 -0.43023914
2.4469562 3.2912278 -0.5036357
2.44609 3.2900627 -0.57596195
1.3162681 1.9429508 -0.37115583
1.3169521 1.9438875 -0.4127889
1.3172183 1.9442804 -0.45428389
1.0207875 1.506677 -0.38407978
0.86663574 1.4080354 -0.37788197
0.80626893 1.3098541 -0.37850815
0.75227743 1.221997 -0.37823004
0.71064389 1.1542773 -0.38091078
2.2313261 3.2679379 0.49589255
2.2313855 3.2680247 0.42583185
2.2329538 3.2704444 0.35593197
2.242888 3.2849939 0.2870757
2.0168786 3.2516248 0.20823175
2.0184472 3.2542803 0.14055236
2.4523249 3.2733235 0.12617715
1.8360549 3.2707412 0.093044296
2.0215507 3.2592843 0.072771184
2.4628727 3.2874026 0.053915441
1.8365737 3.2716653 0.026586587
2.0155878 3.2496705 0.0047386377
2.4750493 3.3036559 -0.019308576
1.8326013 3.2645888 -0.039598409
2.2416503 3.2831814 -0.065574631
2.4744549 3.3028624 -0.092500851
1.8437138 3.2843847 -0.10658924
2.2406435 3.2817068 -0.13598628
2.6886549 3.2792854 -0.17017131
2.0197752 3.2564213 -0.17642014
2.241188 3.2825046 -0.2064935
1.6406598 2.0010719 -0.14970276
1.2582784 2.0286045 -0.15219483
2.236532 3.2756851 -0.27638257
1.6184703 1.9740783 -0.19279207
1.2461562 2.0090611 -0.19274896
2.4585092 3.2815783 -0.35837522
1.611022 1.9649934 -0.23688282
1.2379208 1.9957062 -0.23304203
2.4662881 3.2919614 -0.43232971
2.4637637 3.2885919 -0.50461078
2.4652572 3.2905855 -0.57763141
1.3322921 1.9511646 -0.37365517
1.3329543 1.9520613 -0.41555929
1.3221209 1.9361962 -0.45352423
1.0130602 1.4835329 -0.37912393
0.87795895 1.4147896 -0.38055566
0.81925696 1.3200911 -0.38233146
0.75471151 1.2159452 -0.37721056
0.71690065 1.1549367 -0.38199294
2.2370851 3.2543705 0.49489778
2.2393882 3.2577212 0.42540389
2.2432172 3.2634132 0.35593197
2.2577169 3.284507 0.28765157
2.0270839 3.2452726 0.20823175
2.0350134 3.2580941 0.14099251
2.4625962 3.2656031 0.12617715
1.8423846 3.2579956 0.092845909
2.0360172 3.2597013 0.072922952
2.4755964 3.2828424 0.053967942
1.8468429 3.2658794 0.026586587
2.0342631 3.2568927 0.0047584646
2.4830074 3.2926702 -0.019289868
1.844817 3.2622972 -0.039640713
2.2587502 3.2860105 -0.065772541
2.4824111 3.2918794 -0.09241122
1.8500865 3.2716153 -0.10636293
2.2532067 3.277946 -0.13612309
2.6963999 3.2677398 -0.17001091
2.0469296 3.2771721 -0.17789184
2.2582779 3.2853231 -0.20711608
1.6367719 1.9835873 -0.14877866
1.26676 2.0280273 -0.15244934
2.2468119 3.2686427 -0.27638257
1.6221255 1.9659075 -0.19249083
1.26091 2.0186617 -0.19404912
2.4784033 3.2865648 -0.3597683
1.619722 1.9629945 -0.23725411
1.2399669 1.9850554 -0.23225206
2.4861987 3.2969019 -0.43400219
2.4788637 3.2871754 -0.50558591
2.4803526 3.2891498 -0.57874441
1.3272245 1.9306905 -0.37053096
1.3323849 1.9381248 -0.41348147
1.3326467 1.9385056 -0.45504358
1.0132815 1.4738927 -0.37747195
0.88239932 1.4120244 -0.38055566
0.8110491 1.2977482 -0.37659651
0.75852776 1.2135682 -0.37721056
0.71848428 1.1494135 -0.38091078
2.2648199 3.2689865 0.4983795
2.2649028 3.2691061 0.42797172
2.2687757 3.2748184 0.35808045
2.276556 3.2860487 0.28851539
2.0538633 3.2614796 0.20975327
2.0533314 3.260761 0.14143264
2.4866431 3.2724719 0.12679385
1.8662 3.2720621 0.093441077
2.0543442 3.2623696 0.073150598
2.5045509 3.2960389 0.054335427
1.8627638 3.2660375 0.026643274
2.0483181 3.2527997 0.0047634211
2.5144193 3.309026 -0.019439546
1.8607248 3.2624624 -0.039725326
2.2753341 3.2842848 -0.065904483
2.5065572 3.2986791 -0.09285938
1.8739506 3.2856517 -0.10704184
2.2697592 3.2762377 -0.13639671
2.7287991 3.2824225 -0.17129402
2.0589273 3.2696478 -0.17789184
2.2725787 3.2803078 -0.20732361
1.6567954 1.9929287 -0.14993379
1.2720573 2.0199928 -0.15219483
2.2655942 3.270226 -0.27721673
1.6446189 1.9783521 -0.19429825
1.2704247 2.0174003 -0.19437416
2.4952543 3.2838044 -0.36046487
1.6243598 1.953982 -0.23688282
1.2535975 1.990602 -0.23343702
2.505486 3.2972696 -0.43525651
2.4981012 3.2875512 -0.50704855
2.4995809 3.2894983 -0.58041388
1.3500425 1.9485461 -0.37490487
1.3439668 1.9397048 -0.41486669
1.3375062 1.9303801 -0.45428389
1.0119896 1.4605179 -0.37499401
0.89172596 1.4153793 -0.38233811
0.82615292 1.3111979 -0.38137564
0.76090854 1.2075076 -0.37619105
0.72474539 1.1500303 -0.38199294
2.2699695 3.250901 0.49688733
2.2791464 3.2640438 0.42839968
2.2830441 3.2697473 0.35843852
2.2931528 3.2842247 0.28909126
2.0593812 3.243814 0.2091012
2.0674112 3.256588 0.14157936
2.4961901 3.2601616 0.12667051
1.8741925 3.2582676 0.093242683
2.0727179 3.2649472 0.073378243
2.514183 3.2836614 0.05428293
1.8807051 3.2695899 0.026728308
2.0709455 3.2621553 0.004788205
2.531394 3.3061399 -0.019476965
1.8826414 3.2729561 -0.039936855
2.2919357 3.2824817 -0.066036426
2.5234928 3.2958205 -0.093038648
1.8839869 3.2752953 -0.10692869
2.2909064 3.2810075 -0.13694394
2.7356789 3.2662709 -0.17097324
2.0730391 3.2654529 -0.17807581
2.2983077 3.2916076 -0.20856881
1.6692169 1.9929657 -0.15039583
1.2773129 2.0119467 -0.15194033
2.2867026 3.274987 -0.27832893
1.6595418 1.9814845 -0.19520196
1.2799472 2.0160961 -0.1946992
2.5096958 3.2778006 -0.36081314
1.6494112 1.9693885 -0.23948185
1.2587515 1.9826336 -0.23304203
2.5199728 3.291223 -0.43567464
2.5149612 3.2846775 -0.50802362
2.5236611 3.2960401 -0.58319628
1.3458654 1.9273883 -0.37178066
1.3465562 1.9283059 -0.41348147
1.3445723 1.925465 -0.45428389
1.0173358 1.456799 -0.37499401
0.88645411 1.3956434 -0.37788197
0.82054019 1.2917681 -0.37659651
0.76325512 1.2014458 -0.37517157
0.72895563 1.1473662 -0.38199294
2.3007133 3.2729766 0.50136381
2.303112 3.2763891 0.43096751
2.3001781 3.2723367 0.35951278
2.3126361 3.2900603 0.29024303
2.0803185 3.2541544 0.210188
2.0819378 3.256813 0.14187279
2.5137415 3.2618039 0.12704052
1.8884287 3.2592835 0.093441077
2.0958891 3.2786372 0.07383354
2.5293696 3.2820828 0.054387923
1.8889623 3.2602043 0.026699964
2.0898015 3.269114 0.004808032
2.5466514 3.3045075 -0.019514386
1.8929144 3.2670255 -0.039936855
2.3045366 3.2785373 -0.066102393
2.5435987 3.3005464 -0.093397178
1.9042898 3.2866588 -0.10749445
2.3035016 3.2770648 -0.13708074
2.7613821 3.2759962 -0.17193557
2.0875919 3.2656574 -0.17844373
2.3086371 3.2843711 -0.20856881
1.6780434 1.9907652 -0.15062685
1.2836273 2.0079241 -0.15194033
2.3015695 3.2743161 -0.27888504
1.6683294 1.979311 -0.19550321
1.2819798 2.005347 -0.19404912
2.5248456 3.2762127 -0.36150968
1.6658573 1.9763781 -0.24096701
1.269262 1.9853767 -0.233832
2.5351567 3.289592 -0.43651086
2.5349617 3.2893391 -0.50997382
2.5388393 3.2943707 -0.58430928
1.3519138 1.9231507 -0.37178066
1.3480761 1.9176203 -0.41209629
1.3415805 1.9083804 -0.45124522
1.0241584 1.4567975 -0.37582001
0.89923835 1.4059917 -0.3814469
0.82878011 1.295728 -0.37850815
0.76911008 1.2023003 -0.37619105
0.73463178 1.1483142 -0.38307506
2.3058109 3.2548063 0.49987164
2.3059092 3.254945 0.42925563
2.3167622 3.270386 0.36022893
2.3223732 3.2783065 0.28995508
2.0965588 3.2532222 0.21062273
2.0981913 3.2558806 0.14216623
2.5379403 3.2683578 0.12765723
1.9043967 3.2592454 0.093639463
2.103559 3.26421 0.073681772
2.5487413 3.2822673 0.054545417
1.9109885 3.2705269 0.026841683
2.1082697 3.2715194 0.0048229019
2.5734656 3.3141072 -0.019626645
1.9149654 3.277333 -0.040148385
2.3257852 3.2831228 -0.066366278
2.5728474 3.3133113 -0.094024606
1.9122889 3.2727525 -0.10726815
2.3224297 3.2783864 -0.13749117
2.781132 3.2749927 -0.17241673
2.1038759 3.2647016 -0.17881165
2.3275869 3.2856662 -0.2091914
1.6956681 1.9967769 -0.15155093
1.2931405 2.0065613 -0.15219483
2.325088 3.2821388 -0.28027529
1.6807362 1.9792635 -0.19610569
1.2958002 2.0106883 -0.19502424
1.6627781 1.9581158 -0.23948185
1.2786865 1.9840571 -0.23422699
2.5471966 3.280278 -0.43651086
2.5543058 3.2894332 -0.51143646
2.5581851 3.2944291 -0.58597869
1.3543855 1.9117351 -0.37053096
1.3459857 1.8998082 -0.4093259
1.3462957 1.9002459 -0.45048556
1.0181779 1.4370666 -0.37169012
0.89804637 1.3928545 -0.37877318
0.83352363 1.2926817 -0.37850815
0.77770406 1.2059745 -0.37823004
0.72840011 1.129433 -0.37766439
2.3338683 3.2689445 0.50335336
2.3178236 3.2464716 0.42925563
2.3472519 3.287812 0.36309355
2.3436458 3.2827606 0.29110685
2.117172 3.2589135 0.21149217
2.1188211 3.2615767 0.14275308
2.5548296 3.2653315 0.12790391
1.9224197 3.2625792 0.093937047
2.1329384 3.283308 0.074288838
2.5681481 3.2823539 0.054702912
1.9249933 3.266947 0.026870027
2.1311417 3.2805421 0.0048476858
2.5855949 3.3046527 -0.019626645
1.924934 3.2668462 -0.04010608
2.3401265 3.2778313 -0.066432245
2.5899024 3.310158 -0.094203867
1.9405099 3.2932804 -0.10817336
2.3413985 3.2796128 -0.13790159
2.8113046 3.2860363 -0.17353944
2.1201811 3.2636702 -0.17917958
2.3442559 3.2836154 -0.20960645
1.7029753 1.9905486 -0.15155093
2.120358 3.2638178 -0.24814375
2.3417392 3.2800901 -0.2808314
1.7009438 1.9882444 -0.19761187
1.3053329 2.0092688 -0.19534928
1.5101234 1.9300908 -0.21418926
1.6854781 1.9701664 -0.24170959
1.2881185 1.982695 -0.23462197
2.5883632 3.3081906 -0.51582438
2.5800061 3.2975094 -0.58820462
2.3531499 3.2958298 -0.64046246
2.376229 3.328032 -0.71891755
1.3555335 1.8984948 -0.45124522
1.0257124 1.4365103 -0.3725161
0.90527046 1.3928231 -0.37966442
0.84460634 1.2993878 -0.38137564
0.78211892 1.2031159 -0.37823004
0.73883164 1.1364412 -0.38091078
2.3481519 3.2635903 0.5038507
2.3343525 3.244411 0.43011159
2.3662667 3.2888885 0.36416781
2.360322 3.2806258 0.29168272
2.126914 3.2477906 0.2112748
2.132951 3.257133 0.1428998
2.5742061 3.2653649 0.12827393
1.9364073 3.2589488 0.094036236
2.1405761 3.2687769 0.074137069
2.5925422 3.288624 0.054965403
1.9451271 3.2736244 0.026983403
2.1453424 3.2760553 0.0048526423
2.6175005 3.3202837 -0.019776324
1.9450672 3.2735233 -0.040275306
2.3521247 3.2692323 -0.066432245
2.6119204 3.3132052 -0.094562404
1.9566522 3.2930207 -0.10839967
2.3557379 3.2742543 -0.1380384
2.8207202 3.2726829 -0.17337906
2.1343179 3.2592201 -0.17936353
2.3632741 3.2847288 -0.21022905
1.7128665 1.9873184 -0.15178196
1.3187494 2.0137258 -0.15346737
2.3653977 3.2876806 -0.28222165
1.7056156 1.9789754 -0.19731063
1.3126885 2.0044708 -0.19534928
1.5073195 1.9120256 -0.21279617
1.6978881 1.9700093 -0.24245217
1.301919 1.9879502 -0.23580693
1.4998512 1.9025522 -0.25463134
2.5994315 3.2973633 -0.58987409
2.3652139 3.2871828 -0.64046246
2.3631003 3.2841246 -0.71129894
1.3395452 1.8616365 -0.44364849
1.0309706 1.4327413 -0.3725161
0.89968425 1.3731872 -0.37520826
0.83659083 1.2767905 -0.37564066
0.78440332 1.1970061 -0.37721056
0.7408812 1.1305048 -0.37982866
2.3677056 3.2690549 0.50584024
2.3538649 3.2499452 0.43182346
2.36724 3.268532 0.36273548
2.372957 3.2764256 0.29197067
2.1546962 3.2677684 0.21301369
2.154175 3.267102 0.14363337
2.5993621 3.2760537 0.12901397
1.9527962 3.2631433 0.09433382
2.1596406 3.2753911 0.074440598
2.6103189 3.2898626 0.055122897
1.9554019 3.2674973 0.026983403
2.1578257 3.2726388 0.0048575993
2.6304049 3.3151777 -0.019795034
1.9532877 3.2639644 -0.040232997
2.3788054 3.2845008 -0.06689404
2.6173451 3.298718 -0.094383135
1.9649346 3.2834265 -0.10828651
2.3753922 3.279788 -0.13858563
2.8440821 3.2789013 -0.174181
2.155544 3.2691784 -0.18028335
2.3782678 3.2837586 -0.21064411
1.7269512 1.9909773 -0.15247503
2.1535122 3.2659726 -0.24941628
2.3757148 3.2802334 -0.28222165
1.7170513 1.9796336 -0.19791311
1.3167846 1.9970087 -0.19502424
1.53561 1.935375 -0.21593064
1.7040687 1.9646655 -0.24245217
1.3037754 1.9772042 -0.23501696
1.5206566 1.9165288 -0.25714001
1.4904877 1.8785061 -0.29447818
2.3871171 3.2957349 -0.6435867
2.3849611 3.2926373 -0.71476197
2.3797688 3.2854688 -0.78474128
1.0354666 1.4294952 -0.3725161
0.91473007 1.386629 -0.37966442
0.84487569 1.2806402 -0.37755233
0.78389961 1.188079 -0.37517157
0.74442911 1.1281718 -0.37982866
2.3820112 3.2635608 0.50633764
2.3798287 3.2605703 0.43439129
2.400342 3.2887957 0.36595821
2.3990617 3.2870419 0.29369831
2.1622369 3.2531962 0.21257897
2.1683476 3.2625136 0.14378008
2.6138487 3.2696273 0.12913731
1.9668092 3.2593877 0.094433017
2.178272 3.2774458 0.074668244
2.6348467 3.2958937 0.055385385
1.9714979 3.267158 0.02704009
2.1786623 3.2780333 0.0048774262
2.6500309 3.3148873 -0.019851163
1.9817696 3.2841802 -0.040571447
2.3861122 3.269299 -0.066762097
2.6468973 3.3109677 -0.095010564
1.9955478 3.3070133 -0.10930488
2.3850405 3.2678308 -0.13844882
2.8587105 3.2714648 -0.17434138
2.1608765 3.2512724 -0.17973146
2.3997073 3.2879262 -0.21147424
1.7473751 1.9996694 -0.15363015
2.1743066 3.2713559 -0.25043431
2.4018359 3.2908428 -0.28388995
1.7374179 1.9883447 -0.19941929
1.3263021 1.9954894 -0.19534928
1.5402049 1.9266212 -0.21558237
1.7322229 1.9823993 -0.24542248
1.3132169 1.9757273 -0.23541194
1.5326388 1.9171569 -0.25797623
1.5122372 1.8916368 -0.29740345
1.4889934 1.8625615 -0.33500397
2.3991804 3.2869635 -0.6435867
2.4109492 3.3029661 -0.71891755
2.4056869 3.2957568 -0.78929931
1.040699 1.4256905 -0.3725161
0.90253282 1.3572901 -0.37253457
0.847413 1.2743007 -0.37659651
0.79253286 1.1916392 -0.37721056
0.75282437 1.1318485 -0.38199294
2.3986602 3.2612028 0.50733238
2.3964763 3.2582335 0.43524724
2.4100194 3.2767665 0.36560014
2.4063656 3.2717988 0.29312241
2.1897073 3.2684772 0.21410049
2.1936395 3.2744701 0.14466037
2.6433704 3.281821 0.1300007
1.9870563 3.2658217 0.09482979
2.1947217 3.2760854 0.074820012
2.651927 3.2924442 0.055490382
1.9917758 3.2735784 0.027153466
2.188436 3.2667029 0.0048724692
2.6696901 3.3144977 -0.019907292
1.9958725 3.2803116 -0.040613752
2.4146662 3.2830846 -0.067223892
2.664032 3.3074729 -0.095189832
2.0055768 3.2962613 -0.10919173
2.4135818 3.2816103 -0.13940646
2.8838866 3.275965 -0.17514332
2.1838982 3.2599292 -0.18065128
2.4188423 3.2887628 -0.21209684
1.7599698 1.9992464 -0.15409219
2.1973913 3.2799468 -0.25170684
2.4186099 3.2884467 -0.28444606
1.749965 1.9879512 -0.20002177
1.331388 1.9873027 -0.19502424
1.5647532 1.9426864 -0.21802029
1.7421088 1.9790267 -0.24579377
1.3293116 1.9841284 -0.2369919
1.5521322 1.9270171 -0.26006681
1.529122 1.8984492 -0.29935366
1.5082337 1.8725158 -0.33778641
2.4252577 3.2972441 -0.64733577
2.423039 3.2941074 -0.71891755
2.4293854 3.3027351 -0.79309767
1.0389601 1.4124085 -0.37003815
0.92486989 1.3798864 -0.37966442
0.85207784 1.2711862 -0.37659651
0.79904884 1.1919391 -0.37823004
0.75696772 1.1290816 -0.38199294
2.4136169 3.2600307 0.50832719
2.4090669 3.253885 0.4356752
2.4250429 3.275583 0.36631629
2.4285018 3.2802553 0.29456213
2.206665 3.2715156 0.21475258
2.2039158 3.2675624 0.14466037
2.6612206 3.2828178 0.13037072
1.9952171 3.2561533 0.094730601
2.2027667 3.2658587 0.074744128
2.6672947 3.2903106 0.055595379
1.9957807 3.2570734 0.027068434
2.2031612 3.266444 0.0048823827
2.6826086 3.3092015 -0.019926002
2.0019884 3.2672043 -0.040529139
2.417829 3.2658393 -0.067025982
2.6819644 3.3084066 -0.095458724
2.0201006 3.2967629 -0.10941803
2.419122 3.2675855 -0.13913284
2.8968143 3.2698805 -0.17530371
2.1941288 3.2530522 -0.18065128
2.4244087 3.2747264 -0.21168177
1.7662419 1.9937074 -0.15409219
2.2054524 3.2697179 -0.25145233
2.4313033 3.2840393 -0.28472412
1.7535567 1.9794581 -0.19972053
2.2026219 3.2655213 -0.3211399
1.5683392 1.9346656 -0.21767202
1.7562404 1.9824874 -0.24690765
1.3333124 1.9766426 -0.23659691
1.5531682 1.9159509 -0.25923058
1.5425789 1.9028883 -0.3008163
1.5240866 1.8800765 -0.34001234
2.4379551 3.292784 -0.6479606
2.4380643 3.2928112 -0.72030276
2.4490969 3.3077116 -0.79613632
1.0457212 1.4122829 -0.37086412
0.91393185 1.3543477 -0.37342581
0.84954888 1.2588444 -0.37372902
0.79629797 1.179805 -0.37517157
0.75620228 1.1203144 -0.37982866
2.4421628 3.2734308 0.51180887
2.4495149 3.2832854 0.44081086
2.4513254 3.2858322 0.36846477
2.4452796 3.2777281 0.295138
2.2231321 3.2700119 0.2151873
2.2316086 3.282603 0.14568737
2.6858802 3.2885246 0.13098742
2.0239518 3.2760339 0.095524155
2.2259641 3.2743001 0.075123541
2.6945169 3.299099 0.055910368
2.0350351 3.2939737 0.027436905
2.2241142 3.271579 0.0049022096
2.7099009 3.3179348 -0.020038262
2.0349724 3.2938724 -0.040952202
2.4513063 3.2858064 -0.067619719
2.7041907 3.3109436 -0.09581726
2.0405762 3.302943 -0.10987064
2.4549863 3.2907393 -0.14050092
2.9274087 3.2801147 -0.17642643
2.2217624 3.2681196 -0.18193902
2.4602811 3.2978363 -0.21375708
1.7894912 2.0050964 -0.15547833
2.2331324 3.2847211 -0.25323388
2.4552538 3.2910976 -0.28611436
1.7740791 1.9878972 -0.20122673
2.2325077 3.2838023 -0.32374024
1.5905436 1.9474218 -0.21976167
1.7687985 1.9819802 -0.24765022
1.3539761 1.9914927 -0.23896682
1.5853443 1.9410558 -0.26341173
1.5847028 1.9402704 -0.30764195
1.5510125 1.8990209 -0.34446421
2.4712708 3.3123262 -0.65358418
2.4595404 3.2964833 -0.72307312
2.4705977 3.3113034 -0.79917502
1.062593 1.4241248 -0.37499401
0.934241 1.3735591 -0.37966442
0.86507982 1.27178 -0.37850815
0.804968 1.1832746 -0.37721056
0.76680166 1.1270869 -0.38307506
2.449374 3.2581129 0.51081413
2.4591424 3.2711065 0.4403829
2.4561706 3.267272 0.36739054
2.4620714 3.2751217 0.29571387
2.2396178 3.2684312 0.21562202
2.2368467 3.2645092 0.14524722
2.6928344 3.2724836 0.13074073
2.0253747 3.2516229 0.095028184
2.2356894 3.2628205 0.075047657
2.7040491 3.2861123 0.055857867
2.0280616 3.2559366 0.02718181
2.2383511 3.2667048 0.0049071666
2.7118771 3.2956254 -0.019963423
2.0322285 3.2626264 -0.04065606
2.4561234 3.2672093 -0.067421801
2.7086849 3.2917461 -0.095548362
2.0463266 3.2852602 -0.10953119
2.4502158 3.2593513 -0.13954327
2.9447556 3.2753074 -0.1767472
2.2359843 3.2632508 -0.18212298
2.46035 3.2728319 -0.21271943
1.7914885 1.9925849 -0.15501629
2.2338743 3.2600493 -0.25196135
2.4649019 3.278887 -0.28583631
1.7786865 1.9784154 -0.20092548
2.2332606 3.2591538 -0.32211503
1.6128625 1.960041 -0.22185132
1.7760509 1.9754839 -0.24765022
1.343266 1.9602488 -0.23580693
1.5823371 1.922945 -0.26173928
1.5791903 1.9191208 -0.30520421
1.5554456 1.8902647 -0.34390774
2.4667752 3.2811403 -0.64921027
2.4739735 3.2905955 -0.72376573
2.5039575 3.330477 -0.80601209
1.0583975 1.4077077 -0.37169012
0.92824477 1.3540444 -0.37520826
0.84337968 1.2301583 -0.36703822
0.79836303 1.1643661 -0.37211311
0.7578609 1.1052134 -0.37658226
2.4715722 3.2662268 0.51330101
2.4862053 3.2855644 0.44337872
2.4832501 3.2817783 0.3698971
2.484385 3.283278 0.29715356
2.2544107 3.2679546 0.21605675
2.2561705 3.2706273 0.14583409
2.7209525 3.2855625 0.13160412
2.0483289 3.265569 0.095623352
2.2595541 3.2755327 0.075502954
2.7347682 3.3022447 0.056277853
2.0701616 3.3003764 0.027606968
2.2599592 3.2761197 0.00493195
2.74773 3.3178964 -0.02015052
2.0658472 3.293498 -0.041121423
2.4856815 3.2849915 -0.067949571
2.7445195 3.3140197 -0.096444689
2.0715098 3.3025258 -0.11032325
2.491802 3.2930799 -0.14132176
2.9738014 3.2867863 -0.17786992
2.2530317 3.2660775 -0.18267487
2.4995441 3.3033116 -0.2152098
1.8138148 2.004714 -0.15640242
2.2667727 3.2858741 -0.25450641
2.494453 3.2965834 -0.28806072
1.8063011 1.9964796 -0.20333539
2.2706549 3.2915018 -0.32601553
1.6113873 1.9457574 -0.22080649
1.8009526 1.990568 -0.25024927
2.2716327 3.2927961 -0.39696142
1.6061318 1.9394114 -0.26466608
1.597873 1.9294388 -0.30764195
1.5942208 1.9250287 -0.35114205
2.4937596 3.295428 -0.65358418
2.5309973 3.3445151 -0.81132978
1.0675384 1.4106175 -0.37334207
0.93470901 1.3543309 -0.3760995
0.86489099 1.2530757 -0.37468484
0.80860895 1.1714016 -0.37517157
0.77226794 1.1186723 -0.38199294
2.4763074 3.2476776 0.51180887
2.4861739 3.2606173 0.44123885
2.4904308 3.2663186 0.36918095
2.4988213 3.277323 0.29744151
2.2709334 3.2662284 0.21649146
2.2704246 3.2656181 0.14598079
2.7329764 3.2755678 0.13160412
2.0560095 3.2512803 0.095424958
2.2669785 3.2606616 0.075351186
2.7442906 3.2891281 0.056225356
2.0651417 3.2657213 0.027380217
2.2673848 3.261246 0.0049220365
2.7496221 3.2955179 -0.020075681
2.0693536 3.2723818 -0.040952202
2.497705 3.2758591 -0.067949571
2.7463999 3.291656 -0.096086152
2.0750523 3.2813935 -0.10987064
2.4965832 3.2743878 -0.14091134
2.9965975 3.2876801 -0.17851146
2.2649875 3.2577977 -0.18267487
2.5019464 3.2814219 -0.21437968
1.8130801 1.9891987 -0.15570936
2.2742431 3.2709887 -0.25399739
2.5016799 3.2810721 -0.28750461
1.8055459 1.9810021 -0.20243168
2.2713244 3.2667906 -0.32439032
1.6312722 1.9551367 -0.22254787
1.8055534 1.9810103 -0.24987796
2.2791414 3.2779119 -0.39617145
1.620875 1.9426751 -0.2659204
1.6151079 1.9357631 -0.30959213
1.591115 1.9070067 -0.34891608
2.5034256 3.2831242 -0.65295929
2.5082583 3.2893431 -0.72722876
1.1477911 1.5052192 -0.36616194
1.0655817 1.3973588 -0.37086412
0.9329865 1.3412924 -0.37342581
0.86060572 1.2371433 -0.37086153
0.80627006 1.1589049 -0.37211311
0.77196425 1.1095122 -0.37982866
2.519629 3.2794945 0.51827484
2.5271838 3.2893276 0.44637451
2.5169485 3.276124 0.37132943
2.5229695 3.2839608 0.2988812
2.2920578 3.270967 0.21736091
2.2984354 3.2801902 0.14700779
2.7603993 3.2838917 0.13234416
2.0894082 3.2774413 0.096416906
2.2926841 3.2719824 0.075806484
2.7769163 3.3035409 0.056645337
2.0985992 3.2918584 0.027663656
2.2885044 3.2660172 0.0049418635
2.792568 3.3221607 -0.0203002
2.0963845 3.2883842 -0.041248344
2.526751 3.2888832 -0.068411365
2.7841778 3.3121796 -0.096982479
2.0999615 3.2939951 -0.11054955
2.5329227 3.2969165 -0.14227942
3.0275495 3.2972832 -0.17963417
2.2906704 3.2691085 -0.18377864
2.5358596 3.300739 -0.21624745
1.8446661 2.0090132 -0.15778856
2.3068337 3.2920537 -0.25628796
2.528275 3.2908669 -0.28917292
1.8397707 2.0037518 -0.20544405
2.3130245 3.3008885 -0.32861584
1.6512475 1.9643961 -0.22428925
1.8154957 1.977313 -0.25024927
2.3094146 3.2956145 -0.39933133
1.6382232 1.9489019 -0.26759288
1.6324105 1.9419869 -0.31154233
1.6235818 1.9314837 -0.35448095
2.5395133 3.3052561 -0.6592077
2.532299 3.2957475 -0.73069173
1.1700495 1.522801 -0.37147966
1.0802346 1.4058576 -0.37416804
0.94908839 1.3538288 -0.37788197
0.88743156 1.2657843 -0.38041982
0.81939453 1.1686097 -0.37619105
0.77602559 1.1066754 -0.37982866
2.5153518 3.2527246 0.51529056
2.5277734 3.2687876 0.44466263
2.5272284 3.2682006 0.37132943
2.5381548 3.2823308 0.2994571
2.2977178 3.2572227 0.21692619
2.3041208 3.2664204 0.14671437
2.7629557 3.2660463 0.13197415
2.0910535 3.2574008 0.096020125
2.3029521 3.2647636 0.075806484
2.7821145 3.2886937 0.056540344
2.104609 3.2785172 0.027606968
2.301059 3.2620802 0.0049468204
2.7874906 3.2950485 -0.02018794
2.1002226 3.2716842 -0.041121423
2.537071 3.2809291 -0.068411365
2.7919867 3.3003633 -0.096892849
2.1102996 3.2873816 -0.11054955
2.543268 3.2889428 -0.14227942
3.0378933 3.2877555 -0.17963417
2.2986259 3.258631 -0.18359467
2.5535474 3.3022361 -0.21687005
1.8482585 2.0002751 -0.15755753
2.3079605 3.2717426 -0.25526991
1.8325224 1.9833142 -0.20393786
2.316489 3.2838323 -0.32764071
1.6496898 1.9500722 -0.22324443
1.8271042 1.9774501 -0.25099182
2.3197567 3.288343 -0.39933133
1.6417685 1.9407086 -0.26717475
1.6436317 1.9429111 -0.3125174
1.6296417 1.9263736 -0.35448095
2.5474675 3.2941363 -0.65858287
2.5450506 3.2908921 -0.73138434
1.1892428 1.5377572 -0.37603769
1.0966177 1.4179367 -0.37829792
0.94209474 1.3349108 -0.37342581
0.88468468 1.2534701 -0.37755233
0.81413972 1.1533899 -0.37211311
0.7750569 1.0979401 -0.37766439
2.5540905 3.2779219 0.52076179
2.556848 3.281461 0.44765842
2.5538814 3.2777717 0.37347791
2.5599766 3.2855945 0.30060884
2.3212121 3.2650557 0.21801299
2.3230255 3.2677274 0.14715451
2.7982483 3.2832837 0.13308421
2.1160135 3.2698576 0.096615292
2.3241713 3.2693391 0.076110013
2.8097157 3.2967391 0.056855332
2.1296499 3.29093 0.027777031
2.3176351 3.2601447 0.0049567339
2.8254945 3.3152528 -0.020375039
2.1252382 3.2841125 -0.041375261
2.5638278 3.2905374 -0.068807185
2.830004 3.3205438 -0.097789176
2.1288512 3.2896955 -0.11088901
2.5651333 3.292213 -0.14282665
3.0717082 3.3000033 -0.18091728
2.32213 3.2664676 -0.18451449
2.5729988 3.3023078 -0.21749264
1.8719021 2.0110254 -0.15894367
2.3315015 3.2795291 -0.25654247
1.5205598 1.9515581 -0.17239155
1.8560846 1.994102 -0.20574528
2.3423693 3.2948158 -0.32959098
1.6723346 1.9622093 -0.22533408
1.8424803 1.9794861 -0.25210571
2.3410192 3.2927949 -0.4009113
1.6695137 1.9588995 -0.27051967
1.6584677 1.9459388 -0.31398004
1.6521075 1.9384762 -0.35781986
2.5838079 3.315942 -0.66483128
2.5740457 3.3032947 -0.73623252
1.2093543 1.5519747 -0.38059571
1.1018074 1.4139078 -0.37829792
0.95150125 1.3378042 -0.37520826
0.88927293 1.2502191 -0.37755233
0.8250879 1.1598536 -0.37517157
0.78130817 1.0982298 -0.37874654
2.5587349 3.2591734 0.51926965
2.5688579 3.2720675 0.44765842
2.5707982 3.2746565 0.37419406
2.5744653 3.2793276 0.30089679
