# .PCD v0.7 - Point Cloud Data file format
VERSION 0.7
FIELDS x y z
SIZE 4 4 4
TYPE F F F
COUNT 1 1 1
WIDTH 1500
HEIGHT 1
VIEWPOINT 0 0 0 1 0 0 0
POINTS 1500
DATA ascii
3.4193637 1.9075732 -0.064585075
3.4529359 1.7321178 -0.086585097
3.4238796 2.3244209 -0.11711238
3.4178281 1.9067166 -0.13393418
3.3556893 1.503322 -0.14755665
3.4245107 2.112627 -0.18525034
3.4222 1.9091555 -0.20358805
3.37465 1.5118164 -0.21392709
3.431421 2.1168077 -0.25705147
3.4289804 1.912938 -0.27360207
3.3597467 1.5052103 -0.27804232
3.4304101 2.116184 -0.32861584
3.4228778 1.7170395 -0.33469251
3.3365953 1.4948381 -0.34084395
3.4283955 2.1148586 -0.39972633
3.4277713 1.7194942 -0.40306175
3.4599903 1.7356563 -0.47535801
3.4202163 1.7157043 -0.53756452
1.9287568 1.0759145 -0.34928638
1.7718697 0.9883579 -0.35668838
1.7045658 0.9508155 -0.37755704
1.5791312 0.88081127 -0.38160184
1.370828 0.84525311 -0.36807841
1.2695882 0.78276742 -0.36703822
1.2050616 0.74289626 -0.37313259
1.1374899 0.70118493 -0.37550014
3.407182 1.8843585 0.48793441
3.4106412 1.8862716 0.41941229
3.4095538 1.8857479 0.35020268
3.3969612 1.8787832 0.28016514
3.4342334 2.1012044 0.21909979
3.4437835 2.1071303 0.14818151
3.4334233 1.7066075 0.11828336
3.4227443 2.3053689 0.10236856
3.4318366 2.0998204 0.076337658
3.4419241 1.7108328 0.050450575
3.4336641 2.3127236 0.029335946
3.4119799 2.0876706 0.0049567339
3.4636743 1.7216439 -0.018092437
3.4269233 2.3081834 -0.043702088
3.415833 1.8892208 -0.064387165
3.4556804 1.7176704 -0.086495467
3.4323761 2.3118563 -0.11711238
3.4073024 1.8845028 -0.13325015
3.4013646 1.5088401 -0.14932092
3.4390476 2.1042323 -0.18561827
3.4151921 1.8888663 -0.20275792
3.376518 1.4978182 -0.21369606
3.4391565 2.1042166 -0.25705147
3.4185092 1.8907011 -0.27221182
3.376179 1.4977384 -0.27894601
3.4347425 2.101516 -0.32829079
3.4291482 1.7044824 -0.33469251
3.3784575 1.4987491 -0.34455684
3.4293332 2.098124 -0.39893636
3.4198015 1.6998366 -0.4013893
3.4521077 1.7158946 -0.4734078
3.4051991 1.6925784 -0.53422558
1.9396021 1.0726621 -0.35053605
1.7789278 0.98376352 -0.35738099
1.6977292 0.93885994 -0.375278
1.620024 0.89585131 -0.39068761
1.3805702 0.84429199 -0.36986089
1.2724487 0.77810889 -0.36703822
1.2011764 0.73443913 -0.3710936
1.1301959 0.69098508 -0.37225375
3.3931844 1.8604093 0.4849501
3.4140444 1.8718463 0.41898432
3.4059627 1.8674924 0.34912843
3.410821 1.8701563 0.28074104
3.4214242 2.0761712 0.21779563
3.4378142 2.0861988 0.14759466
3.4109616 1.6798804 0.11729664
3.4145472 2.2816999 0.10187259
3.4395099 2.0872281 0.076337658
3.4302311 1.6893704 0.050188083
3.4221632 2.2867892 0.029165883
3.4298675 2.0813766 0.0049716039
3.4484308 1.6983337 -0.017980177
3.4154065 2.282274 -0.043448254
3.4016929 1.8651514 -0.063991338
3.4476027 1.6979259 -0.086136937
3.4275286 2.2903743 -0.11665977
3.407176 1.8681577 -0.13297653
3.3593001 1.4754689 -0.14723587
3.4364889 2.0853946 -0.18506637
3.415087 1.8724953 -0.20234287
3.3819852 1.4854326 -0.21369606
3.4331949 2.0833137 -0.25603345
3.4149194 1.8724035 -0.27137765
3.3889496 1.4885621 -0.2795485
3.4356053 2.0847764 -0.32764071
3.424648 1.6866208 -0.33364767
3.3875744 1.4879581 -0.34492812
3.437 2.0855408 -0.39893636
3.4224401 1.6855334 -0.40097117
3.4476886 1.6979681 -0.47194517
3.4149334 1.6818365 -0.53478211
1.9261987 1.0560491 -0.34741184
1.7687036 0.96966136 -0.35461059
1.7183771 0.94207072 -0.37907636
1.6541837 0.90684032 -0.39812142
1.370319 0.8311373 -0.36629596
1.2653288 0.7673974 -0.36417073
1.2038602 0.73003167 -0.3710936
1.145892 0.69482458 -0.37658226
3.4164431 1.8592259 0.48743701
3.416415 1.8592105 0.41855633
3.4118128 1.8567832 0.34912843
3.4131751 1.8575246 0.28045309
3.445035 2.0757186 0.21888244
3.4511988 2.0795145 0.14788808
3.4377759 1.6796873 0.11803669
3.4350255 2.2798066 0.10226937
3.4391992 2.072284 0.07618589
3.4427087 1.6820974 0.050293081
3.4359958 2.2804506 0.02922257
3.4226849 2.0623336 0.0049517769
3.4645309 1.6927598 -0.018036306
3.4258921 2.2737448 -0.043490559
3.4180746 1.860191 -0.064189255
3.4529197 1.6870866 -0.086136937
3.4313755 2.277384 -0.11654662
3.423562 1.8631774 -0.13338695
3.4188848 1.4888445 -0.14964168
3.4361784 2.0704639 -0.18469845
3.417444 1.8598478 -0.20213534
3.4195862 1.4891499 -0.21577527
3.4397228 2.0725179 -0.25603345
3.4383094 1.8712033 -0.27276793
3.4009233 1.4810932 -0.28015098
3.4387228 2.0719154 -0.32731569
3.4406705 1.6811017 -0.33469251
3.3885808 1.4757181 -0.34455684
3.4264879 2.0644619 -0.39696142
3.4277184 1.6747732 -0.40097117
3.4530058 1.6871285 -0.47194517
2.2314937 1.0903014 -0.34891608
1.9433882 1.0575465 -0.34991121
1.7890432 0.97351509 -0.35807359
1.7247778 0.93854475 -0.37983605
1.667338 0.90725094 -0.40059933
1.3896255 0.836887 -0.37075213
1.2777156 0.76942962 -0.36703822
1.2028341 0.72425085 -0.37007412
1.1447703 0.68923497 -0.37550014
3.4057691 1.8372697 0.4849501
3.4092054 1.8391234 0.41684446
3.4185953 1.8442657 0.34912843
3.4094267 1.8393195 0.27958927
3.4251909 2.0466881 0.21714355
3.4313467 2.0504477 0.14671437
3.4151199 1.6531401 0.11704996
3.4199793 2.2518079 0.10157501
3.4364722 2.0535104 0.075958245
3.4344506 1.6624973 0.05008309
3.4276271 2.2568433 0.029080851
3.4233534 2.0456712 0.0049418635
3.4419093 1.6661079 -0.017886627
3.4241807 2.2545743 -0.043363642
3.4459889 1.8590441 -0.064585075
3.4446824 1.6674502 -0.085778408
3.4063044 2.2428041 -0.1154151
3.4198132 1.8449228 -0.13297653
3.3949571 1.4636451 -0.14835858
3.4437439 2.0578558 -0.18469845
3.4383004 1.8548963 -0.20296547
3.3993518 1.4655398 -0.21415812
3.4301622 2.0496585 -0.25476092
3.4240735 1.8472211 -0.2710996
3.3880153 1.4607224 -0.2786448
3.4360268 2.0531628 -0.32634056
3.4324622 1.6615349 -0.3332994
3.3903096 1.4617116 -0.34418556
3.4271975 2.047806 -0.39617145
3.4230917 1.656999 -0.39971685
3.4377251 1.6640824 -0.46901989
2.2247789 1.0769377 -0.34724665
1.9368196 1.0447892 -0.34803668
1.7717955 0.95572948 -0.35391799
2.7513041 1.4840891 -0.60469896
1.6844306 0.90856576 -0.40390325
1.3859879 0.82778913 -0.36896965
1.270523 0.75876689 -0.36417073
1.2054806 0.71983737 -0.37007412
1.1439824 0.68306035 -0.37441799
3.4229801 1.8303893 0.48644224
3.4229376 1.8303664 0.41770041
3.432358 1.8354809 0.3498446
3.4337361 1.8362178 0.28102896
3.4292333 2.0320842 0.21692619
3.4388387 2.0378573 0.14671437
3.4139459 1.6371543 0.11680328
3.4181662 2.2326977 0.10127743
3.4439757 2.0409014 0.075958245
3.4369144 1.6481688 0.050030589
3.4325271 2.2420781 0.029052507
3.4308283 2.0331101 0.0049418635
3.4660263 1.6621294 -0.017980177
3.43577 2.2441962 -0.043405946
3.4316185 1.8350854 -0.064189255
3.465194 1.6617303 -0.086136937
3.4312396 2.2412369 -0.11598086
3.4265521 1.8323761 -0.13297653
3.4076507 1.4543298 -0.14867936
3.4306381 2.0329976 -0.18359467
3.4415531 1.8403981 -0.20275792
3.415719 1.4577732 -0.21485119
3.4273489 2.0309675 -0.25399739
3.4343398 1.8365406 -0.27137765
3.4080203 1.4545578 -0.27984974
3.440099 2.038523 -0.32601553
3.4313431 1.6454971 -0.33260286
3.3883183 1.4461489 -0.34344298
3.441529 2.0392892 -0.39696142
3.414794 1.6375611 -0.39804438
3.4438012 1.6514714 -0.46901989
3.410928 1.6357071 -0.53144318
1.9476041 1.0414094 -0.34928638
1.7996055 0.96223223 -0.35876617
2.8536954 1.5258442 -0.62596977
1.725715 0.92268503 -0.41298902
1.3789473 0.81674206 -0.36629596
1.2866633 0.7620222 -0.36799404
1.214767 0.71935588 -0.37211311
1.1630459 0.68867302 -0.37982866
3.4111843 1.8103238 0.48395532
3.4286709 1.8196039 0.41770041
3.4205122 1.8153507 0.3480542
3.4148192 1.8123292 0.2790134
3.4321578 2.0192757 0.21670882
3.4348884 2.0209627 0.14627422
3.4190724 1.626421 0.11680328
3.4218087 2.2197719 0.10117823
3.4331357 2.0199316 0.075578831
3.4420753 1.6373633 0.050030589
3.4361982 2.2291064 0.029024163
3.4234083 2.0142083 0.0049220365
3.4531705 1.6426412 -0.017886627
3.4260256 2.2225075 -0.043194417
3.4338338 1.8224207 -0.06412328
3.44873 1.6405288 -0.085599139
3.4114285 2.213038 -0.11507564
3.4287605 1.8197281 -0.13283972
3.4048409 1.4405026 -0.14835858
3.4507835 2.0303149 -0.18433052
3.4261472 1.8183411 -0.20151274
3.4129264 1.4439234 -0.21438913
3.4440341 2.026263 -0.25476092
3.4224689 1.8163891 -0.2699874
3.3905327 1.4345189 -0.27804232
3.4396141 2.0236623 -0.32536545
3.4364955 1.6347091 -0.33260286
3.3524973 1.4184263 -0.33935878
3.4376264 2.0224121 -0.39577645
3.4306989 1.6319517 -0.39929873
3.4346316 1.6338224 -0.46706972
2.2284808 1.0600677 -0.34669015
1.9508661 1.0352857 -0.34928638
1.7852198 0.94734055 -0.3553032
2.8931651 1.5352802 -0.6335665
1.7631774 0.93560416 -0.42124879
1.388229 0.81635928 -0.36807841
1.2790064 0.75206995 -0.36512655
1.2103523 0.71161532 -0.37007412
1.141966 0.67135453 -0.37225375
3.414284 1.7959613 0.48345795
3.4317973 1.8051735 0.41727242
3.4341946 1.806511 0.34877035
3.4390934 1.809088 0.28045309
3.4360859 2.0046699 0.21649146
3.4319146 2.0023165 0.14583409
3.4141605 1.608766 0.11643326
3.4299216 2.2072155 0.10117823
3.4336073 2.003304 0.07542707
3.4299629 1.6162121 0.049768101
3.4275272 2.2056744 0.028882444
3.4307678 2.0016475 0.0049220365
3.4483128 1.6248586 -0.017830499
3.4274213 2.2056065 -0.043109804
3.4298716 1.804237 -0.063925371
3.4619546 1.6312867 -0.085778408
3.4296038 2.207011 -0.1154151
3.4247932 1.8015655 -0.1324293
3.4174709 1.4311012 -0.14867936
3.4305916 2.0015445 -0.18285882
3.4257181 1.8020521 -0.20109768
3.4145124 1.4298621 -0.21415812
3.4204059 1.9955218 -0.25247034
3.4326348 1.8056906 -0.27026546
3.4068048 1.4267045 -0.27894601
3.4401207 2.0070238 -0.32471535
3.4352546 1.6187056 -0.33190629
3.3760417 1.4138215 -0.34121522
3.4450157 2.009799 -0.39577645
3.4258614 1.6142795 -0.39804438
3.4370053 1.6195306 -0.46658215
3.4112332 1.6073867 -0.52977371
1.9441575 1.0226108 -0.34741184
1.8026267 0.94812661 -0.35807359
1.8081616 0.95099753 -0.43116054
1.3945804 0.81322998 -0.36896965
1.2918204 0.75324655 -0.36799404
1.2196354 0.71107066 -0.37211311
1.1543993 0.67298281 -0.37550014
3.4138048 1.7797656 0.48246318
3.4313374 1.7889061 0.4164165
3.4231296 1.784703 0.34697995
3.4209371 1.7835599 0.2784375
3.4261241 1.9820622 0.21540466
3.4392302 1.9897244 0.14583409
3.4200339 1.5962416 0.11643326
3.4278767 2.1881745 0.10088065
3.4270799 1.982695 0.075123541
3.4394879 1.6053214 0.049820598
3.4355884 2.1930971 0.028882444
3.4207695 1.9790442 0.0048972531
3.4542449 1.6122091 -0.017830499
3.432111 2.1908774 -0.0430675
3.4400077 1.7935027 -0.063991338
3.4606628 1.6152045 -0.085599139
3.414078 2.1793661 -0.11462303
3.4313731 1.789001 -0.1324293
3.4079244 1.4124448 -0.14803781
3.4482806 1.9949603 -0.18341072
3.4287577 1.7876374 -0.20089015
3.4197302 1.4173378 -0.21415812
3.4415181 1.9909678 -0.25348839
3.4180002 1.7820287 -0.26859716
3.4083264 1.4126811 -0.2786448
3.4440029 1.9924053 -0.32439032
3.4375534 1.6044186 -0.33155802
1.8653632 0.77315468 -0.18824388
3.4316859 1.9851998 -0.39340654
3.449779 1.6101246 -0.40013495
3.4063334 1.5898472 -0.52810425
1.9619061 1.0227839 -0.34991121
1.8165699 0.94697666 -0.36015138
1.9014034 0.99120027 -0.41478094
1.8324584 0.95521861 -0.4361164
1.3941759 0.80616117 -0.36807841
1.284485 0.74267423 -0.36512655
1.2121876 0.70078802 -0.36905465
1.1535243 0.66681999 -0.37441799
3.4132528 1.7635977 0.48146841
3.4202046 1.7671896 0.41427663
3.4331872 1.7739735 0.34733802
3.43454 1.7746725 0.2790134
3.416043 1.9595546 0.21431786
3.4395654 1.9731276 0.14554065
3.407716 1.5753076 0.11581656
3.4223599 2.1670392 0.10048387
3.4343238 1.9701208 0.075123541
3.4308267 1.5859911 0.049610607
3.4267063 2.1697912 0.028740725
3.4349394 1.9704739 0.0049071666
3.4492385 1.5945024 -0.017774368
3.4367385 2.1761436 -0.043025196
3.4287925 1.7717026 -0.063661486
3.4447801 1.5924416 -0.085061342
3.4186647 2.1646993 -0.11450988
3.4201493 1.7672367 -0.13174526
3.4093804 1.3984278 -0.14787742
3.4105117 1.9564607 -0.1810192
3.4317379 1.7732246 -0.20068263
3.4064288 1.3972172 -0.21300299
3.4141657 1.9584777 -0.25094333
3.4209635 1.7676574 -0.2683191
3.409791 1.3986658 -0.27834356
3.4270749 1.9658829 -0.32211503
3.4217088 1.5817761 -0.32946837
1.8902932 0.77538139 -0.19047162
3.4354863 1.9706283 -0.39301157
3.2938237 1.5226579 -0.44561765
2.2435973 1.0371628 -0.34724665
1.9586214 1.0119591 -0.34866154
1.8200285 0.94031221 -0.36015138
1.9259579 0.9950403 -0.419339
1.8811504 0.97184902 -0.44685411
1.3971213 0.80104584 -0.36807841
1.290568 0.7398932 -0.3660824
1.224815 0.70211124 -0.37211311
1.1693243 0.67024761 -0.37874654
3.4293718 1.7582984 0.48296055
3.4363565 1.7618794 0.41556054
3.4316533 1.7595437 0.34662187
3.4258978 1.7565926 0.27786162
3.425653 1.9507896 0.21453522
3.4318531 1.9543996 0.1449538
3.4162824 1.5662605 0.1159399
3.4291511 2.1562767 0.10048387
3.4335458 1.9553636 0.074971773
3.4394279 1.576872 0.049663104
3.4436643 2.1654029 0.028825756
3.4202576 1.9477962 0.0048774262
3.4578667 1.5853256 -0.017793078
3.4334002 2.1589487 -0.042898275
3.4414592 1.7645715 -0.063793428
3.4534011 1.5832782 -0.085150979
3.4220636 2.1518202 -0.11439673
3.4327991 1.7601311 -0.13201888
3.4137571 1.3877101 -0.14787742
3.4235857 1.9496914 -0.18138713
3.433737 1.7606121 -0.2004751
3.4292984 1.3940277 -0.21415812
3.4411149 1.9595946 -0.25247034
3.4193985 1.7532601 -0.26776299
3.4030833 1.3834404 -0.27743983
3.4401629 1.9590524 -0.32276511
1.8779618 0.76343948 -0.18898645
3.4451191 1.9617953 -0.39340654
3.2979319 1.5120003 -0.38131982
3.3166356 1.5205755 -0.44805539
2.2396433 1.0268075 -0.34613368
1.9582752 1.0039984 -0.34803668
1.8334908 0.93998164 -0.36222917
1.932569 0.99077642 -0.42009866
1.8876771 0.96771991 -0.44768009
1.4097978 0.80243951 -0.37075213
1.2962618 0.73775637 -0.36703822
1.2202913 0.69443381 -0.37007412
1.1580365 0.65895277 -0.37441799
3.4251781 1.7403238 0.48146841
3.4321542 1.7438682 0.41427663
3.4203205 1.7379307 0.34483147
3.4394267 1.7476388 0.2784375
3.4188681 1.9303658 0.21366577
3.428551 1.9359119 0.14451365
3.4220002 1.5537287 0.1159399
3.4268525 2.1373453 0.10018629
3.4337244 1.9388331 0.074820012
3.4379005 1.5609481 0.049558111
3.4380021 2.1442995 0.028712381
3.4413061 1.943114 0.0048972531
3.4527276 1.5676802 -0.017736949
3.4277148 2.1378832 -0.042729054
3.437207 1.746511 -0.063595518
3.4518983 1.5673037 -0.084971711
3.4265349 2.1371472 -0.11428357
3.4320993 1.7439157 -0.13174526
3.4114041 1.3722057 -0.14755665
3.4272292 1.9351656 -0.18120317
3.4330444 1.744396 -0.20006002
3.4158604 1.3739982 -0.21300299
3.4308937 1.9371557 -0.25119781
3.4222441 1.7389081 -0.26748496
3.4007301 1.3679811 -0.27683735
3.4299619 1.9366297 -0.3211399
3.3235464 1.5090266 -0.31902012
1.9176971 0.77141476 -0.19269936
3.4418879 1.9432842 -0.39222157
3.3215625 1.5081258 -0.38341039
3.3149567 1.5051265 -0.44708028
3.3218067 1.5082366 -0.5125227
1.9760312 1.0039726 -0.35053605
1.8544852 0.94217741 -0.36569217
1.94319 0.98724419 -0.42161801
1.9191258 0.97497618 -0.45428792
1.4127294 0.79726696 -0.37075213
1.3023398 0.73490924 -0.36799404
1.2295656 0.69375795 -0.37211311
1.1805671 0.66605723 -0.38091078
3.4279888 1.7259732 0.48097101
3.4207618 1.7223345 0.41213676
3.433784 1.7289662 0.34554762
3.4315553 1.727844 0.27728575
3.4294055 1.9197731 0.21388313
3.4286475 1.9194274 0.14422022
3.4203789 1.5378969 0.11569322
3.4210606 2.1163559 0.099789508
3.4198697 1.9145133 0.074364714
3.4399509 1.5466969 0.04950561
3.4424367 2.1295798 0.028684037
3.413502 1.9109486 0.0048476858
3.447506 1.5500939 -0.017680818
3.432126 2.1232014 -0.042686746
3.4400129 1.7321026 -0.063529551
3.4393833 1.5464418 -0.084523551
3.4207435 2.1161599 -0.11383096
3.4241858 1.7241334 -0.13119803
3.4164107 1.3596931 -0.14755665
3.4342988 1.9225912 -0.18120317
3.4287114 1.7264121 -0.19943744
3.4171631 1.3599926 -0.21277198
3.4275208 1.9187181 -0.25043431
3.4214664 1.7227641 -0.26692885
3.3946035 1.3510827 -0.27593365
3.4057279 1.9065185 -0.31821457
3.3217864 1.4935669 -0.31832355
1.9020096 0.7570169 -0.1908429
3.4246743 1.9170461 -0.38945669
3.3089266 1.4877849 -0.38131982
3.3132091 1.4897102 -0.44610521
2.0195086 0.90802687 -0.31107512
1.9655821 0.98961669 -0.34803668
1.8579259 0.93537402 -0.36569217
1.9397799 0.97658348 -0.42009866
1.929678 0.97145545 -0.45593986
1.4020301 0.78446752 -0.3671872
1.2914659 0.72254521 -0.36417073
1.2185977 0.68169332 -0.36803514
1.1729181 0.65608603 -0.37766439
3.4298437 1.7134217 0.48047364
3.4190402 1.7080247 0.41128081
3.4285069 1.7128288 0.34447339
3.4369664 1.717055 0.27728575
3.4249458 1.9031698 0.21323106
3.4136963 1.8969966 0.14333993
3.4215419 1.5255158 0.11556987
3.4310997 2.107691 0.099888705
3.4083884 1.894047 0.073985301
3.4374869 1.532625 0.049400616
3.4320691 2.1082864 0.028542317
3.4124956 1.8963295 0.0048377723
3.4487052 1.5376267 -0.01766211
3.428555 2.106128 -0.042559829
3.4418597 1.7194995 -0.063463576
3.4405723 1.5340005 -0.084433913
3.4171538 2.0991242 -0.11349151
3.4403138 1.7187272 -0.13160846
3.4169474 1.3474871 -0.14739625
3.4228582 1.902088 -0.18028335
3.4376917 1.7174172 -0.19964497
3.4251337 1.3507155 -0.21300299
3.426553 1.9040629 -0.2499253
3.4197226 1.7084402 -0.26637274
1.8886518 0.74483567 -0.15332994
3.4186704 1.8996826 -0.31886464
3.3810539 1.5074639 -0.32354769
1.9006734 0.74957669 -0.19047162
3.4202418 1.9004778 -0.38827172
3.3426509 1.4903417 -0.38466474
3.3214986 1.4809109 -0.44659275
1.8812571 0.83877021 -0.28937221
1.9828192 0.99049914 -0.35053605
1.8925744 0.94537687 -0.37192556
1.9533781 0.97574949 -0.42237768
1.9502269 0.9741329 -0.46006975
1.4215324 0.78952581 -0.37164333
1.3039163 0.72414172 -0.36703822
1.2342594 0.68537259 -0.37211311
1.1749734 0.65239799 -0.37766439
3.4289865 1.6973177 0.47947887
3.4145846 1.690189 0.4099969
3.4240503 1.6949489 0.34339914
3.4325101 1.6991365 0.27642193
3.4214032 1.8848222 0.21257897
3.417125 1.8825432 0.14319322
3.4197953 1.5097356 0.1153232
3.425142 2.0867791 0.099491931
3.404799 1.8757527 0.073757656
3.4430811 1.5200156 0.049400616
3.4329414 2.0915308 0.02848563
3.4019058 1.8741586 0.0048129885
3.4469993 1.5217453 -0.017624689
3.4225883 2.0852232 -0.042390604
3.4338014 1.6997757 -0.063199699
3.4461715 1.5213799 -0.084433913
3.4248247 2.0865858 -0.11349151
3.4250939 1.6954653 -0.13078761
3.4069693 1.3291439 -0.14675471
3.4123077 1.8798894 -0.17936353
3.4189031 1.6924009 -0.19819225
3.4077399 1.3294445 -0.21161686
3.4090338 1.878008 -0.24814375
3.4188089 1.6923542 -0.26581666
1.8839374 0.73500896 -0.15272747
3.4046583 1.8755977 -0.31691438
3.3573933 1.482187 -0.3207615
1.8996977 0.74115777 -0.19010033
3.4027791 1.8744851 -0.38550681
3.3226161 1.4668339 -0.38173795
3.3087442 1.4607099 -0.44415501
1.8480818 0.81587189 -0.28380734
1.9687318 0.97446191 -0.34741184
1.8960267 0.93843395 -0.37192556
1.9639807 0.97206759 -0.42389703
1.9607996 0.97045052 -0.46172172
1.414169 0.77866781 -0.36896965
1.2997566 0.7156111 -0.36512655
1.2265979 0.67524821 -0.36905465
1.1672361 0.64251614 -0.37441799
3.4316211 1.6829909 0.47898149
3.4207566 1.6776625 0.4099969
3.4373934 1.6858963 0.34411532
3.4243867 1.679517 0.27527016
3.4107614 1.8626976 0.21149217
3.4240019 1.8700062 0.14319322
3.4216423 1.49559 0.11519986
3.4190774 2.0659392 0.099095151
3.4221809 1.8690116 0.073985301
3.4412994 1.5041821 0.049295619
3.4474311 2.0830717 0.028542317
3.4122624 1.8635948 0.0048179454
3.4562187 1.5107033 -0.0176434
3.4336314 2.0747333 -0.042432912
3.44719 1.6907011 -0.063331634
3.4553888 1.5103405 -0.084523551
3.4358716 2.076087 -0.11360466
3.4384634 1.686421 -0.13106123
3.4192755 1.3195257 -0.14707547
3.4191751 1.86737 -0.17936353
3.4430156 1.6886537 -0.1992299
3.4200408 1.3198211 -0.21207891
3.4193976 1.867414 -0.24839826
3.4321539 1.6833266 -0.26637274
1.894061 0.73097122 -0.15332994
3.4290049 1.8726608 -0.31853959
3.3737569 1.4746594 -0.32180631
1.9098326 0.73705798 -0.1908429
3.4375744 1.8772629 -0.38866672
3.3316152 1.4562393 -0.38215607
3.3104379 1.4469829 -0.44366747
1.8619484 0.81385225 -0.2854768
1.9722902 0.96723962 -0.34741184
1.9277507 0.94535512 -0.37746635
1.9851605 0.97350842 -0.42769539
1.9889414 0.97531956 -0.46750355
1.4238589 0.77721602 -0.37075213
1.3160081 0.71828586 -0.36894986
1.2460407 0.68001246 -0.37415206
1.1831044 0.64561212 -0.37874654
3.4226155 1.665256 0.47699195
3.408129 1.6582077 0.40785706
3.4283433 1.6681169 0.34268299
3.4260588 1.6670052 0.27498224
3.4201076 1.8538766 0.21170953
3.4263456 1.8573352 0.14304651
3.4226553 1.4832435 0.11507652
3.4186931 2.0510733 0.098896764
3.4174879 1.8525336 0.073757656
3.4423382 1.4917731 0.049243122
3.4196589 2.0516527 0.028258879
3.4075506 1.8471469 0.004803075
3.4462671 1.4934758 -0.01756856
3.4264131 2.0557051 -0.042263687
3.4345028 1.6711138 -0.063001782
3.4564474 1.4978875 -0.084433913
3.4218049 2.0529401 -0.11292575
3.4221761 1.6651161 -0.13024038
3.4122043 1.3044956 -0.14659432
3.4109733 1.8490022 -0.17862768
3.4267516 1.6673424 -0.19798471
3.40552 1.3019402 -0.21092379
3.400681 1.8433462 -0.24661671
3.4123085 1.6603148 -0.26442638
1.9075249 0.72929049 -0.15423365
3.4173462 1.8523797 -0.31691438
3.3747168 1.4624687 -0.32145804
1.9046985 0.72820985 -0.19010033
3.4259579 1.8569703 -0.38669178
3.3252234 1.4410203 -0.38090172
1.8469105 0.80037791 -0.24718615
1.8354199 0.79539841 -0.28102493
1.9788718 0.96276718 -0.34803668
1.9413389 0.94446468 -0.37954414
2.0023348 0.97413927 -0.43073407
2.0131123 0.97933906 -0.47245944
1.422865 0.77088141 -0.36986089
1.3080127 0.70859754 -0.3660824
1.2379677 0.67056787 -0.3710936
1.1749686 0.63639015 -0.37550014
3.4286959 1.6527003 0.47699195
3.421349 1.6491588 0.40871298
3.4236681 1.6503503 0.34160873
3.4177701 1.6475073 0.27383047
3.4233611 1.8394383 0.21149217
3.4225664 1.8390883 0.14260636
3.4317431 1.4722651 0.11519986
3.4261875 2.0385294 0.098896764
3.4172089 1.8362094 0.073605895
3.4441071 1.4775695 0.049190622
3.4409053 2.0472863 0.028372254
3.4142978 1.8346453 0.004803075
3.4590697 1.4839886 -0.017605979
3.4407992 2.0472231 -0.042348299
3.4478102 1.6619878 -0.063133724
3.4582391 1.4836323 -0.084344283
3.4327424 2.0424294 -0.1130389
3.4390595 1.6577697 -0.1306508
3.4094856 1.2891533 -0.14627354
3.4353263 1.8459446 -0.1795475
3.443635 1.6599752 -0.19860731
3.4177394 1.2922742 -0.21138585
3.4496114 1.853543 -0.24967079
3.42556 1.6512623 -0.26498249
1.913916 0.72370487 -0.15453489
3.445184 1.8511641 -0.31886464
3.3947024 1.4563742 -0.32285115
1.9036294 0.71981525 -0.18972903
3.4502728 1.8538208 -0.38866672
3.3524177 1.4382335 -0.38341039
1.8680745 0.80142975 -0.24962389
1.8674449 0.80115962 -0.2854768
1.9966234 0.96236962 -0.35053605
1.9909229 0.95957917 -0.38854793
2.0129673 0.97020406 -0.43225342
2.041368 0.98384863 -0.47824126
1.4291162 0.76750618 -0.37075213
1.310601 0.70379871 -0.3660824
1.2370095 0.66419625 -0.37007412
1.180686 0.633901 -0.37658226
3.4204042 1.6332815 0.47500241
3.4094262 1.6280392 0.40657315
3.4189088 1.6326406 0.34053451
3.434586 1.6401272 0.27469429
3.4124537 1.8174908 0.21040536
3.4151719 1.819015 0.14201951
3.4187162 1.4518632 0.11458316
3.4164164 2.0157979 0.098400787
3.4027371 1.812392 0.073150598
3.4421365 1.4618094 0.049085628
3.4277163 2.0224652 0.028202191
3.403347 1.8127168 0.0047782916
3.4423954 1.4619193 -0.017493721
3.4172761 2.0163052 -0.041967545
3.432224 1.6389991 -0.062737904
3.4526112 1.4662577 -0.084075384
3.4298742 2.0237384 -0.11269944
3.4234676 1.6348177 -0.12982996
3.410444 1.2752484 -0.14611316
3.4244354 1.8239491 -0.17862768
3.4280677 1.6370144 -0.19736212
3.4000106 1.2713472 -0.2099997
3.4281952 1.8258748 -0.24763474
3.4171858 1.6318179 -0.2638703
1.9053477 0.71249402 -0.15363118
3.427314 1.8254055 -0.31658936
3.3963499 1.4423646 -0.32250285
1.9062549 0.71283329 -0.18972903
3.4324515 1.8280648 -0.38590181
1.8674046 0.79305089 -0.21323806
1.8527279 0.78681797 -0.24718615
1.852139 0.78656787 -0.28269437
1.996572 0.9533428 -0.34991121
2.0477536 0.97773755 -0.3989369
2.0448613 0.97635663 -0.4383308
2.0661516 0.98647773 -0.48319715
1.4215933 0.75676596 -0.36807841
1.3131717 0.6989904 -0.3660824
1.2462645 0.66329241 -0.37211311
1.179602 0.62776017 -0.37550014
3.4291053 1.6242268 0.47549978
3.4217124 1.6207252 0.40742907
3.4312217 1.6253027 0.34125066
3.4325106 1.6259131 0.27411842
3.4110844 1.8030283 0.20997064
3.4208696 1.808277 0.14201951
3.4343152 1.4457695 0.11495318
3.4330833 2.0111187 0.09869837
3.4154856 1.805431 0.073302366
3.4503982 1.4525402 0.049138125
3.4478583 2.019774 0.028315566
3.4054887 1.8001466 0.0047733346
3.465404 1.4588573 -0.017587271
3.4339473 2.0116248 -0.042094462
3.4518139 1.6350569 -0.063001782
3.4572005 1.4554038 -0.084075384
3.4396651 2.0149741 -0.11281259
3.4394252 1.6291885 -0.13024038
3.4144335 1.2645279 -0.14611316
3.4372139 1.8169166 -0.17899561
3.4404137 1.6296568 -0.19777718
3.4152222 1.2648201 -0.21069278
3.4515605 1.8244232 -0.24890727
3.429508 1.6244909 -0.26442638
1.911317 0.70788997 -0.15393242
3.4436059 1.8202186 -0.31756446
3.3935192 1.4285953 -0.32180631
1.9084849 0.70684105 -0.18972903
3.4452157 1.8209926 -0.38669178
1.8845526 0.79335433 -0.21491052
1.8808047 0.79177654 -0.250599
1.8619025 0.78381914 -0.28380734
2.0031278 0.94875687 -0.35053605
2.1006613 0.9949075 -0.40863329
2.0514679 0.9716087 -0.43909046
2.0727775 0.98165709 -0.48402312
1.4343073 0.75776076 -0.37075213
1.3256643 0.70030427 -0.36894986
1.2449219 0.65756738 -0.3710936
1.1951886 0.63124496 -0.37982866
3.4242558 1.6065902 0.47400764
3.4096274 1.5997268 0.40528923
3.4155159 1.6025622 0.33910218
3.4239995 1.6065428 0.27296665
3.4141319 1.7886605 0.20975327
3.4203928 1.7920165 0.14172608
3.4174478 1.423946 0.11421313
3.4196851 1.9864708 0.09810321
3.4079099 1.7854764 0.072998837
3.4409311 1.4337307 0.048928134
3.4275684 1.9910502 0.028088816
3.4085205 1.7857965 0.0047683781
3.4411898 1.4338386 -0.01743759
3.4067113 1.9789344 -0.041671403
3.4360592 1.6122012 -0.062605962
3.4440546 1.4350324 -0.083627224
3.430897 1.6097791 -0.12969315
3.4040329 1.2465076 -0.1454716
3.4190741 1.7913257 -0.17770788
3.428282 1.6085521 -0.19673952
3.4085855 1.2481748 -0.2099997
3.422864 1.7932352 -0.24636221
3.4137642 1.6017404 -0.26275808
1.9026625 0.69676512 -0.15302871
3.4325967 1.7983341 -0.31593928
3.3950541 1.4146153 -0.32145804
1.9073229 0.69847184 -0.18935774
3.4377632 1.8009644 -0.38511184
1.8727593 0.7803216 -0.21323806
1.8726997 0.78029674 -0.24913634
1.85745 0.77394265 -0.28269437
1.999438 0.93805248 -0.34928638
2.1007271 0.98552829 -0.40794069
2.0692368 0.97075498 -0.44212916
2.079905 0.97571558 -0.4848491
1.430166 0.74888092 -0.36896965
1.3247812 0.6936391 -0.36799404
1.2507504 0.65479404 -0.37211311
1.180436 0.61793047 -0.37441799
3.4193234 1.589011 0.47251549
3.4298942 1.5939233 0.40700111
3.4285922 1.5933909 0.33981833
3.4334829 1.5956639 0.2732546
3.4100306 1.7706134 0.2091012
3.4233902 1.777626 0.14157936
3.4263399 1.4129351 0.11433648
3.4269428 1.9739237 0.09810321
3.4179802 1.7748169 0.073074713
3.453558 1.424159 0.049033128
3.4383092 1.9804707 0.028117159
3.4150429 1.7732916 0.0047683781
3.472307 1.4318907 -0.01756856
3.4278054 1.9744204 -0.041840628
3.4491992 1.6029677 -0.062737904
3.4677761 1.4300224 -0.084075384
3.43009 1.9757364 -0.11202053
3.44765 1.6022478 -0.13010357
3.4048207 1.2326623 -0.14531122
3.4362552 1.7843063 -0.17825976
3.4486446 1.6027101 -0.19756965
3.4168923 1.2370327 -0.21023072
3.4435847 1.7880359 -0.24738023
3.437705 1.5976261 -0.26414832
1.9202051 0.69521827 -0.15423365
3.4497797 1.7912525 -0.31691438
3.3928485 1.399124 -0.3207615
1.9211047 0.69554394 -0.19047162
3.4478736 1.7901865 -0.38550681
1.8829621 0.7764855 -0.2140743
1.8792174 0.77494127 -0.24962389
1.8675982 0.77014977 -0.28380734
2.0422752 0.94903255 -0.35615963
2.1257613 0.98778296 -0.41209629
2.0834653 0.9681291 -0.44440818
2.0160296 0.93675083 -0.46915552
1.4467456 0.75081891 -0.37253457
1.3411049 0.69593501 -0.37181735
1.2634418 0.65554959 -0.37517157
1.1895293 0.61714661 -0.37658226
3.4098806 1.5716157 0.47052595
3.4096017 1.5714872 0.40400532
3.4082544 1.5709382 0.33731177
3.413116 1.5731791 0.27123901
3.4084754 1.756233 0.20866647
3.4218514 1.7632005 0.14128594
3.4233601 1.3991388 0.11408979
3.4261847 1.9591779 0.097904816
3.4022088 1.7530792 0.072619423
3.446908 1.4087629 0.048875634
3.4271524 1.9597313 0.027975438
3.3957071 1.7497289 0.0047336807
3.4397619 1.4058423 -0.017381461
3.4096859 1.9497436 -0.041544486
3.4469535 1.5887755 -0.062605962
3.4426374 1.4070176 -0.083358325
3.3980992 1.943118 -0.11077586
3.4308832 1.5813684 -0.12928274
3.4049141 1.220611 -0.14515083
3.4240842 1.764351 -0.17733996
3.4173849 1.5751467 -0.19549434
3.3906891 1.2155116 -0.20838255
3.424345 1.7644099 -0.24559869
1.8998518 0.68110597 -0.15242623
3.430582 1.7676235 -0.31463912
1.9045349 0.68278486 -0.18861516
3.4357886 1.7702303 -0.38353187
1.8780274 0.76755613 -0.21323806
1.8706174 0.76452762 -0.24816126
1.851675 0.75678581 -0.28102493
2.034482 0.93765074 -0.35428509
2.1002309 0.96790856 -0.4065555
2.0044632 0.92377329 -0.4269357
1.8945546 0.87308091 -0.44024628
1.4352303 0.73912877 -0.36896965
1.3225656 0.68104923 -0.3660824
1.2483008 0.64272416 -0.37007412
1.1880385 0.61164391 -0.37550014
3.4228392 1.5624034 0.47152072
3.4334283 1.5672371 0.40614516
3.4284861 1.5650535 0.3387441
3.4297471 1.5656291 0.27210283
3.4077749 1.7400956 0.20823175
3.4247308 1.748829 0.14113922
3.4284651 1.3865821 0.11408979
3.4333422 1.9466071 0.097904816
3.4192965 1.7460541 0.072847068
3.4557559 1.3976195 0.048928134
3.4412713 1.9511027 0.028032128
3.4092221 1.7409096 0.0047435942
3.4671404 1.4022237 -0.017493721
3.4481242 1.954988 -0.041925237
3.4527535 1.5761312 -0.062605962
3.4663079 1.4018869 -0.083806485
3.4504154 1.956287 -0.11224683
3.4330196 1.5671229 -0.12914594
3.4131322 1.2094581 -0.14531122
3.4269691 1.7499721 -0.17715599
3.4026494 1.2057434 -0.20884459
3.4378994 1.7554779 -0.2461077
3.35412 1.5311065 -0.25691903
1.9248928 0.68213183 -0.15423365
3.4476898 1.7604771 -0.31561422
1.8618412 0.75298882 -0.17553072
1.9107786 0.67713016 -0.18898645
3.452889 1.763056 -0.38471684
1.8955797 0.76663369 -0.21491052
1.8881292 0.7636205 -0.25011143
1.8691249 0.75593454 -0.28325087
2.0414991 0.93182826 -0.35490996
2.0392537 0.93076026 -0.39408872
1.9042283 0.86913174 -0.40490523
1.8443345 0.84175599 -0.42785662
1.4414029 0.73563606 -0.36986089
1.3354318 0.68149376 -0.36894986
1.2644293 0.64517653 -0.37415206
1.203993 0.61428583 -0.37982866
3.4068429 1.5400385 0.46853641
3.4174056 1.5448133 0.40357733
3.4051573 1.5393481 0.33587945
3.4172854 1.5448308 0.27066314
3.4105661 1.7257905 0.20801438
3.4204175 1.7308505 0.14069907
3.4335241 1.3740069 0.11408979
3.4369681 1.9320507 0.097805627
3.4113996 1.726287 0.072543539
3.4422886 1.3775141 0.048665643
3.4274788 1.9267164 0.027862063
3.4013038 1.7211782 0.0047237673
3.4499748 1.38059 -0.017381461
3.4273732 1.9266571 -0.04158679
3.4439297 1.5568757 -0.062342081
3.4268696 1.3713439 -0.082730897
3.4192224 1.9220752 -0.11100216
3.4062259 1.1929768 -0.14483005
3.4369254 1.739204 -0.17733996
3.3633201 1.520435 -0.19175878
3.3882015 1.1866641 -0.20768948
3.430063 1.7356563 -0.24508967
3.3451653 1.5122278 -0.2558068
1.9047935 0.66716117 -0.15242623
3.4327753 1.7370287 -0.31366399
1.8867861 0.75504261 -0.17762037
1.8982122 0.66485608 -0.1875013
3.423811 1.7324176 -0.38076699
1.8946835 0.75820291 -0.21449241
1.8761714 0.75079489 -0.24816126
1.8571727 0.74319214 -0.28102493
1.9836978 0.89667439 -0.34428763
1.9457241 0.87946862 -0.37538856
1.8394074 0.83141339 -0.39047146
1.7903445 0.80919927 -0.41464096
1.4475693 0.732108 -0.37075213
1.3275223 0.67133605 -0.3660824
1.2564303 0.63530183 -0.3710936
1.185617 0.59944373 -0.37333587
3.4189079 1.532575 0.46953118
3.4258711 1.5356964 0.40400532
3.4354241 1.5400507 0.33838603
3.4403245 1.5422474 0.27210283
3.4052627 1.709691 0.20736231
3.422266 1.7183027 0.14055236
3.4266741 1.3587922 0.11371978
3.4185774 1.907604 0.097111262
3.423954 1.7191503 0.072695307
3.4503171 1.3681674 0.04871814
3.4230361 1.910092 0.027777031
3.4209931 1.7176636 0.0047435942
3.4654498 1.374168 -0.01743759
3.433409 1.9158802 -0.04158679
3.4269066 1.5362324 -0.061946258
3.4720523 1.3767861 -0.083716854
3.4496849 1.9249623 -0.11179423
3.3852408 1.5175543 -0.12695701
3.3986282 1.1783421 -0.14434889
3.4066629 1.7104685 -0.17550032
3.3935959 1.5212997 -0.1932115
3.3956857 1.177322 -0.20792049
3.4247963 1.7194984 -0.24432616
3.379029 1.5147696 -0.25803122
1.9219542 0.66640049 -0.15363118
3.4453411 1.7298135 -0.31431407
1.8706278 0.74176717 -0.17587899
1.9303952 0.6693272 -0.19047162
3.4541378 1.7341545 -0.38353187
1.8896601 0.74931413 -0.21365617
1.8895926 0.74928737 -0.24962389
1.874227 0.7431944 -0.28325087
1.8963732 0.85003704 -0.3286666
1.862198 0.83467919 -0.35876617
1.8097572 0.81117409 -0.38363439
1.8107352 0.81157446 -0.41877085
1.4394064 0.72230989 -0.36807841
1.336568 0.67064613 -0.36799404
1.2722487 0.63828939 -0.37517157
1.2081463 0.60607636 -0.37982866
3.4172466 1.5168134 0.46853641
3.4169364 1.5166757 0.40229341
3.4082737 1.5129018 0.3351633
3.4058423 1.5118225 0.2689355
3.418658 1.7007567 0.20779704
3.4285409 1.705748 0.14055236
3.4390752 1.3491439 0.11396645
3.4220471 1.8931258 0.097012073
3.412329 1.6976824 0.072315894
3.4590321 1.3569728 0.04877064
3.4230139 1.8936607 0.027720343
3.3986156 1.6908597 0.0047039404
3.4592922 1.3570749 -0.017381461
3.4019091 1.8819851 -0.041121423
3.4325142 1.5236619 -0.061946258
3.428679 1.3450655 -0.082551628
3.3972392 1.8794016 -0.10987064
3.3834724 1.5018927 -0.1266834
3.4067051 1.167173 -0.14450927
3.4379516 1.7104299 -0.17678806
3.355336 1.4894031 -0.19072112
3.3886449 1.1609854 -0.20722742
3.4417977 1.7122685 -0.24508967
3.3699696 1.4958988 -0.25691903
1.9017439 0.65159458 -0.15182376
3.4445193 1.7136225 -0.31366399
1.9030105 0.74654806 -0.17866519
1.898926 0.6506291 -0.18713
3.4283962 1.7055267 -0.37997702
1.8998004 0.74528873 -0.21449241
1.8738465 0.73510706 -0.24718615
1.8621883 0.7305336 -0.28102493
1.8380861 0.81583291 -0.3180443
1.8112319 0.80387586 -0.3483772
1.791181 0.79497671 -0.37907636
1.7993883 0.79858178 -0.41546693
1.4629939 0.72744626 -0.37342581
1.3390172 0.66574287 -0.36799404
1.2537985 0.62329131 -0.36905465
1.203463 0.598216 -0.37766439
3.4191496 1.5026815 0.46803901
3.4224725 1.5041418 0.40229341
3.4283848 1.5068116 0.33659562
3.4369276 1.5105662 0.27095109
3.4105387 1.6811516 0.20692758
3.4168429 1.6843333 0.13981879
3.4365425 1.333637 0.11371978
3.4184446 1.874802 0.096714489
3.4113541 1.6816275 0.072164126
3.4490674 1.3384976 0.048560645
3.4194105 1.8753316 0.027635312
3.4119656 1.681929 0.0047138538
3.4567847 1.3414925 -0.017344041
3.4193051 1.8752738 -0.041248344
3.4270914 1.5062431 -0.061748344
3.4708669 1.3469576 -0.083447956
3.4146221 1.8727056 -0.1102101
3.4035935 1.4959155 -0.12723063
3.3996029 1.1508343 -0.14402811
3.4011898 1.6766171 -0.17458051
3.3936853 1.4915608 -0.19258891
3.3890948 1.1472771 -0.20699641
3.412245 1.6819928 -0.24254461
3.4046543 1.4963818 -0.25914341
1.9154534 0.64845699 -0.15272747
3.4293213 1.69041 -0.31171376
1.8834447 0.73091823 -0.17657554
1.9163877 0.64877325 -0.18861516
3.4453351 1.698229 -0.38116196
1.895102 0.73544216 -0.21365617
1.8765281 0.72823411 -0.24718615
1.8759317 0.72800267 -0.28269437
1.8048937 0.79319483 -0.31179589
1.8177727 0.79881692 -0.3490698
1.8084641 0.79472625 -0.38211507
1.8202187 0.79985392 -0.41959682
1.4446625 0.71173918 -0.36807841
1.3414482 0.66083062 -0.36799404
1.266484 0.62381899 -0.37211311
1.2021929 0.59209967 -0.37658226
3.4202149 1.490347 0.46754164
3.4235349 1.4917936 0.40186545
3.4184928 1.4896675 0.3351633
3.4050817 1.4838234 0.26807168
3.4229794 1.6739382 0.20736231
3.4221177 1.6735907 0.13981879
3.4369833 1.3213996 0.11359643
3.4208055 1.8621416 0.096615292
3.4166203 1.6709023 0.072164126
3.4569886 1.3290908 0.048613146
3.4323113 1.8684049 0.027691999
3.4064527 1.6659298 0.0046989839
3.4647157 1.3320615 -0.017362751
3.4111273 1.8568733 -0.041079119
3.4428058 1.5002624 -0.061946258
3.4377551 1.3216962 -0.082551628
3.4240003 1.8638806 -0.11032325
3.4119411 1.4868125 -0.12736744
3.4069915 1.1414182 -0.14418851
3.431567 1.6782118 -0.17586824
3.3983545 1.4808919 -0.19258891
3.3775365 1.1315502 -0.20607232
3.4390287 1.6817867 -0.24407165
3.3873899 1.4761139 -0.25747511
1.9174812 0.64243627 -0.15272747
3.4453592 1.6848825 -0.31268886
1.9080479 0.73357749 -0.17866519
1.8957579 0.63515806 -0.18638742
3.4291983 1.6769052 -0.37879205
1.9085425 0.73376763 -0.21491052
1.8825125 0.72376001 -0.24767371
1.8671178 0.71784127 -0.28102493
1.8254867 0.79541165 -0.3149201
1.8202734 0.79310226 -0.3490698
1.8181524 0.79217821 -0.38363439
1.8083705 0.78787857 -0.41629294
1.4538981 0.71062183 -0.36986089
1.3470073 0.65831858 -0.36894986
1.2684375 0.61983716 -0.37211311
1.207507 0.59001052 -0.37766439
3.4110773 1.4715128 0.46555209
3.4216762 1.4760851 0.4010095
3.4312458 1.4802843 0.33587945
3.4434667 1.4855566 0.27066314
3.4147139 1.654415 0.20649287
3.4210341 1.6575508 0.13952537
3.4231184 1.3016882 0.11297973
3.410012 1.8400964 0.096119322
3.4227214 1.6583685 0.072164126
3.4468827 1.310725 0.048403151
3.4109755 1.8406162 0.027465248
3.4233348 1.6586657 0.0047138538
3.4583583 1.3150886 -0.017306622
3.4319901 1.8519561 -0.041248344
3.4262476 1.4781281 -0.061550435
3.450052 1.3119301 -0.082730897
3.4484026 1.8608125 -0.11088901
3.3916731 1.4632123 -0.12640978
3.4035633 1.1264118 -0.14386773
3.4017355 1.6482004 -0.17402862
3.4000914 1.466844 -0.19238138
3.41643 1.6552465 -0.2420356
3.4110968 1.4715918 -0.25886539
1.9198229 0.63540399 -0.15272747
3.4263966 1.6600753 -0.31041357
1.8883761 0.71808118 -0.17657554
1.9245403 0.63696533 -0.18898645
3.446068 1.6695317 -0.37997702
1.8889091 0.71828389 -0.21240184
1.8777307 0.71403313 -0.24669862
1.8808436 0.71521688 -0.28269437
1.8175064 0.78402084 -0.31304556
1.8304027 0.78954607 -0.35045499
1.8318619 0.79017544 -0.38591343
1.825621 0.7874456 -0.41959682
1.4529833 0.70358878 -0.36896965
1.3389235 0.6482991 -0.3660824
1.2776636 0.61855483 -0.37415206
1.2165935 0.58893657 -0.37982866
3.4273977 1.4636769 0.46704423
3.4234059 1.4619722 0.40058154
3.421993 1.4614394 0.33444715
3.4195361 1.4603902 0.26835963
3.4243555 1.6436167 0.20671022
3.4306901 1.6467308 0.13967207
3.4503195 1.2975771 0.11371978
3.4343636 1.837016 0.096615292
3.414355 1.6388899 0.071860597
3.4666383 1.3037143 0.048613146
3.4494421 1.8450813 0.027720343
3.4113607 1.6374527 0.0046890704
3.4668992 1.3038123 -0.017325332
3.4352281 1.8374783 -0.041206036
3.4500327 1.4734144 -0.061880287
3.4436083 1.2950532 -0.082461998
3.4340453 1.8368458 -0.1102101
3.4080427 1.4554815 -0.12682021
3.4149582 1.6391796 -0.17439654
3.4054449 1.4543722 -0.19238138
3.4047186 1.1129651 -0.20722742
3.4296715 1.6461682 -0.24254461
3.39078 1.4481091 -0.25691903
1.9183477 0.62712383 -0.15242623
3.4396465 1.650956 -0.31106368
1.9096442 0.7181685 -0.17831692
1.9041485 0.622482 -0.18675871
3.4413984 1.651723 -0.37879205
1.9026996 0.71555674 -0.21365617
1.8840512 0.7085436 -0.24718615
1.8760372 0.70552975 -0.2815814
1.8349017 0.78356051 -0.31554493
1.8332843 0.78283197 -0.35045499
1.8275223 0.78037155 -0.38439408
1.8176967 0.77613837 -0.41711891
1.4660997 0.70331842 -0.37164333
1.3552989 0.65010679 -0.36990571
1.2624844 0.60550445 -0.36905465
1.2117995 0.58114326 -0.37766439
3.4210143 1.4482604 0.46555209
3.4243195 1.4496596 0.40015355
3.4265673 1.4506817 0.33444715
3.4277811 1.4511956 0.26864755
3.4222898 1.6294167 0.20627551
3.425019 1.6307895 0.13923194
3.4431391 1.2825445 0.11334975
3.4153943 1.8130928 0.095920935
3.4194868 1.6281554 0.071860597
3.4444804 1.2830442 0.048245657
3.4269581 1.8192315 0.027493592
3.4164882 1.6267276 0.0046890704
3.4559846 1.2873293 -0.017250491
3.4303851 1.8210509 -0.041079119
3.4251804 1.4500946 -0.061352521
3.4401648 1.2814366 -0.082282737
3.4397991 1.8260483 -0.1102101
3.3978729 1.4385335 -0.12627298
3.3807287 1.0933794 -0.14258462
3.4164834 1.6267253 -0.17421259
3.3916044 1.4358797 -0.19134372
3.4081984 1.1022635 -0.20722742
3.4204092 1.6285213 -0.24152659
3.3842888 1.4327825 -0.25608486
1.9127183 0.61863917 -0.15182376
3.4232185 1.6298589 -0.30911341
1.9044226 0.70938373 -0.17762037
1.9098841 0.61772251 -0.18713
3.428601 1.6323482 -0.37681711
1.8937546 0.70540994 -0.21240184
1.878827 0.69984949 -0.24621107
1.8671086 0.69548452 -0.27991197
1.8373543 0.77779216 -0.31554493
1.8357346 0.77706873 -0.35045499
1.8299648 0.77462637 -0.38439408
1.8237302 0.77194971 -0.41794488
1.4612598 0.69535798 -0.36986089
1.3538272 0.6441769 -0.36894986
1.2783515 0.60818207 -0.37313259
1.2136192 0.57733339 -0.37766439
3.4189785 1.4326442 0.46455732
3.4369459 1.4401731 0.4010095
3.4245126 1.4350336 0.33373097
3.4257178 1.4355385 0.26807168
3.413789 1.6100475 0.20540605
3.4273579 1.61652 0.13908522
3.4403133 1.2671525 0.11310307
3.4184778 1.7987006 0.095821738
3.4218142 1.6139053 0.071784712
3.4566662 1.2731757 0.048350655
3.4513018 1.8159715 0.027635312
3.4188097 1.6124883 0.0046841134
3.4681866 1.2774189 -0.017287912
3.4441159 1.8121905 -0.041163731
3.4378498 1.4406224 -0.061484464
3.4560959 1.2729657 -0.082551628
3.4464688 1.8134285 -0.1102101
3.4068096 1.4276152 -0.12640978
3.3580623 1.0724694 -0.14146191
3.4151947 1.6107833 -0.17384467
3.4115813 1.4296147 -0.19217384
3.4274316 1.0946239 -0.20815152
3.4335761 1.6193796 -0.2420356
3.4005582 1.4249955 -0.25691903
1.9225719 0.61405164 -0.15242623
3.4435925 1.6241038 -0.31041357
1.892053 0.69688988 -0.17622727
1.9159292 0.61193001 -0.1875013
3.441761 1.6231664 -0.37760708
1.8888614 0.69571435 -0.21156561
1.8813794 0.69295859 -0.24621107
1.8770791 0.69137466 -0.28102493
1.818329 0.76189166 -0.31179589
1.8385704 0.7703352 -0.35045499
1.8327917 0.767914 -0.38439408
1.8157179 0.76072305 -0.41546693
1.4637986 0.68999749 -0.36986089
1.3526657 0.63755459 -0.36799404
1.2770733 0.60184371 -0.37211311
1.2122437 0.57123989 -0.37658226
3.4242063 1.4201034 0.46455732
3.4275067 1.4214722 0.39929762
3.4297493 1.4224724 0.33373097
3.4235859 1.4199162 0.26749581
3.4305234 1.6025959 0.20605814
3.4368813 1.6056392 0.13923194
3.4374211 1.2517984 0.11285639
3.4215019 1.7843101 0.095722541
3.4204597 1.5979674 0.071632951
3.4613094 1.2604978 0.048350655
3.4260151 1.7866638 0.027380217
3.4174488 1.5965607 0.0046742
3.4690866 1.2633301 -0.017269202
3.429456 1.7884581 -0.040909894
3.4394124 1.4264802 -0.061418492
3.4494658 1.2561847 -0.082282737
3.4424562 1.7952379 -0.10987064
3.4120193 1.4151189 -0.12640978
3.430582 1.0817901 -0.14434889
3.4210756 1.5982552 -0.17384467
3.398349 1.4094492 -0.19113618
3.4238036 1.0796525 -0.20768948
3.4358716 1.6050944 -0.24178109
3.3983865 1.4094648 -0.25636292
1.9172016 0.60460174 -0.15182376
3.4386859 1.6064092 -0.30943847
1.9133158 0.69676816 -0.17796865
1.9181592 0.6049037 -0.1875013
1.9100884 0.69559288 -0.21365617
1.8913677 0.68877536 -0.24718615
1.8758786 0.68313473 -0.28046843
1.846656 0.76581633 -0.31616977
1.8413814 0.76359129 -0.35045499
1.8355939 0.76119131 -0.38439408
1.8221092 0.75556219 -0.41629294
1.4733844 0.68792719 -0.37164333
1.3549933 0.6325925 -0.36799404
1.2757657 0.59552288 -0.3710936
1.2247976 0.57167912 -0.37982866
3.421309 1.4063212 0.46356255
3.428277 1.4091854 0.39886963
3.4305165 1.4101758 0.33337289
3.4317198 1.4106705 0.26778373
3.4174211 1.5834152 0.20497134
3.4274011 1.5881119 0.13864508
3.4375758 1.239637 0.11273305
3.4199877 1.7698766 0.095524155
3.414577 1.5821698 0.071405306
3.44644 1.2428336 0.048088163
3.4280586 1.7740533 0.027351873
3.4115596 1.5807717 0.00465933
3.4617503 1.2483547 -0.017213073
3.4350576 1.7776754 -0.040909894
3.4290805 1.4095856 -0.061154611
3.4496331 1.2439851 -0.082193099
3.4409771 1.7807388 -0.10964434
3.4016583 1.3983132 -0.12586255
3.3500223 1.0448271 -0.14082037
3.4115779 1.58078 -0.17310882
3.3953707 1.3957286 -0.19072112
3.4309907 1.07008 -0.20792049
3.4300313 1.5892578 -0.24101757
3.3917258 1.3942302 -0.25552875
1.9152839 0.59738803 -0.15152252
1.8930042 0.68264329 -0.17587899
1.9086438 0.59531701 -0.18638742
3.3082643 1.5327686 -0.36180761
1.8823266 0.67879283 -0.21031126
1.8785831 0.67744285 -0.24523598
1.870563 0.67455071 -0.27935547
1.8344357 0.75400311 -0.3136704
1.8328398 0.75330979 -0.3483772
1.8307115 0.75243503 -0.38287473
1.8172339 0.7468586 -0.41464096
1.4613844 0.67674065 -0.36807841
1.3534495 0.62670052 -0.36703822
1.2776302 0.59151202 -0.3710936
1.2091148 0.55973977 -0.37441799
3.4227638 1.3922765 0.46306518
3.4371028 1.3981092 0.39929762
3.4319715 1.3960917 0.33301482
3.4405627 1.3995864 0.26807168
3.4304619 1.5742106 0.20540605
3.4404647 1.5788736 0.1389385
3.4420962 1.2270293 0.11273305
3.4193354 1.7536801 0.095325768
3.4312575 1.5746483 0.071632951
3.4585068 1.2328794 0.04819316
3.438097 1.7633023 0.027380217
3.428237 1.5732621 0.0046742
3.4700701 1.2370014 -0.017231783
3.434432 1.7614228 -0.040825281
3.4416332 1.4000219 -0.061286554
3.446636 1.2286476 -0.082013838
3.4510386 1.7699397 -0.10975749
3.4141665 1.3888488 -0.12613617
3.3461897 1.0301895 -0.14049959
3.4209805 1.569932 -0.17329277
3.4115641 1.3877902 -0.19134372
3.4196236 1.0527977 -0.20699641
3.3968129 1.3817896 -0.25552875
1.9250847 0.59271151 -0.15212499
3.3372133 1.5314196 -0.29936221
1.9142607 0.68239057 -0.17762037
1.9222322 0.59183329 -0.1875013
3.3174775 1.522293 -0.36220261
1.9072846 0.67990375 -0.21281995
1.8922725 0.67455226 -0.24669862
1.8767539 0.6690203 -0.27991197
1.8481661 0.75174028 -0.31554493
1.8465364 0.7510398 -0.35045499
1.8480083 0.75163847 -0.38591343
1.8163337 0.73871857 -0.41381499
1.4815772 0.67950797 -0.37253457
1.3733902 0.62983119 -0.37181735
1.2938533 0.59327394 -0.37517157
1.2286605 0.56332898 -0.37982866
3.4167981 1.3752762 0.461573
3.4348254 1.3825321 0.39844167
3.4296739 1.3805282 0.33229864
3.430865 1.3810078 0.26691991
3.4325724 1.5599743 0.20518869
3.4207549 1.5546757 0.1379115
3.4352577 1.2104192 0.11236303
3.4150457 1.7357005 0.095028184
3.4260831 1.5570973 0.071405306
3.4516854 1.2162075 0.048035666
3.426708 1.7416277 0.027238498
3.4121308 1.5507563 0.0046444596
3.4670353 1.2216161 -0.017194362
3.4372993 1.7470108 -0.040782977
3.4281905 1.3799311 -0.060956702
3.4473443 1.2146778 -0.0819242
3.4396803 1.748221 -0.10919173
3.3969829 1.3673693 -0.12531532
3.3346465 1.0132703 -0.13985804
3.4018052 1.3693104 -0.1905136
3.4425635 1.046062 -0.20815152
3.3398311 1.5178269 -0.23389138
3.3907497 1.3648603 -0.25469461
1.9196115 0.58333236 -0.15152252
3.3173969 1.5076314 -0.29708692
1.8904406 0.66610014 -0.17518245
1.9167671 0.58246803 -0.18675871
3.3012919 1.5002427 -0.3598327
1.8985078 0.66894257 -0.21156561
1.887243 0.66497344 -0.24572352
1.8791934 0.66213715 -0.27991197
1.8399135 0.74053586 -0.3136704
1.8346579 0.73838335 -0.34768459
1.8361778 0.73899513 -0.38287473
1.8117675 0.72913402 -0.41216302
1.476957 0.67084789 -0.37075213
1.36508 0.61997479 -0.36894986
1.2889755 0.58532923 -0.37313259
1.209679 0.54926944 -0.37333587
3.4211018 1.3645352 0.461573
3.4317636 1.3687878 0.39758572
3.4376945 1.3712229 0.33265674
3.4425981 1.3731788 0.26749581
3.4119668 1.5376953 0.20366718
3.4292665 1.5455639 0.13805822
3.4201684 1.1930369 0.11174633
3.4169114 1.7231627 0.094928987
3.4418962 1.5512562 0.071632951
3.4441597 1.2014058 0.047878172
3.4321625 1.7308538 0.027238498
3.4279261 1.5449599 0.00465933
3.474633 1.2120355 -0.017213073
3.4534848 1.7416067 -0.040909894
3.4287939 1.3676726 -0.06089073
3.4549191 1.2051588 -0.082013838
3.4487257 1.7392067 -0.10930488
3.4161146 1.3626151 -0.12586255
3.3492966 1.0062391 -0.1403392
3.3587298 1.5137732 -0.16961353
3.4209313 1.3645364 -0.19134372
3.4343593 1.0317948 -0.20745845
3.344583 1.5073271 -0.23389138
3.4098461 1.3601147 -0.2558068
1.9328945 0.580742 -0.15242623
3.3366559 1.5037544 -0.29838708
1.9000489 0.66278273 -0.17587899
1.9224018 0.57758945 -0.18713
3.3459074 1.5078536 -0.36417755
1.9006 0.66297495 -0.21156561
1.9005687 0.66296411 -0.24718615
1.8924845 0.66014409 -0.2815814
1.8459007 0.73621559 -0.31429526
1.855265 0.73991293 -0.35114759
1.8494338 0.73758739 -0.38515374
1.843132 0.73503685 -0.41877085
1.4897236 0.67100894 -0.37342581
1.381187 0.62206334 -0.3727732
1.3049152 0.58762968 -0.37721056
1.2394891 0.55811495 -0.38199294
3.4186964 1.3490733 0.46057823
3.4256592 1.3518209 0.39630181
3.4204624 1.3498392 0.33050826
3.4253414 1.3517647 0.26576817
3.4394639 1.5349458 0.20497134
3.4203072 1.5264683 0.13747136
3.4396374 1.1857053 0.11223969
3.4232042 1.7106274 0.094928987
3.4256463 1.528851 0.071177654
