# This PCD file was generated using the MATLAB® pcwrite function
# from Computer Vision System Toolbox®.
# .PCD v.7 - Point Cloud Data file format
VERSION .7
FIELDS x y z rgb
SIZE 4 4 4 4
TYPE F F F F
COUNT 1 1 1 1
WIDTH 1072
HEIGHT 1
VIEWPOINT 0 0 0 1 0 0 0
POINTS 1072
DATA ascii
0.741287 0.684126 -0.085239 2.397435300e-39
0.768400 0.682620 -0.082823 2.585782425e-39
0.788831 0.690858 -0.078917 2.495380457e-39
0.806965 0.700133 -0.082331 0.000000000e+00
0.859641 0.687414 -0.090080 5.532090919e-39
0.678526 0.719397 -0.074012 2.674741055e-39
0.692992 0.717268 -0.076981 2.582545426e-39
0.711428 0.712716 -0.080422 3.223597434e-39
0.721090 0.706721 -0.089524 3.590223355e-39
0.800701 0.706360 -0.073160 2.677978055e-39
0.805444 0.710476 -0.080575 2.954563543e-39
0.672059 0.735675 -0.080947 2.582548228e-39
0.687745 0.725833 -0.085095 2.582546827e-39
0.711226 0.722944 -0.088725 4.691894781e-39
0.822505 0.732021 -0.078508 9.230310946e-40
0.652348 0.755005 -0.080264 2.582908362e-39
0.663492 0.745847 -0.077426 2.491431598e-39
0.831515 0.747985 -0.080098 1.292532480e-39
0.635111 0.774539 -0.080949 3.321192267e-39
0.644262 0.766450 -0.083053 2.583628629e-39
0.612903 0.794238 -0.079683 3.596701558e-39
0.626063 0.786063 -0.080515 3.873645779e-39
0.596283 0.814752 -0.079490 3.596341424e-39
0.604444 0.807789 -0.083277 3.504505928e-39
0.573180 0.839940 -0.073701 3.688892984e-39
0.587146 0.832597 -0.079896 3.412306094e-39
0.517444 0.843010 -0.082352 1.753863757e-39
0.572819 0.850782 -0.082043 3.781808881e-39
0.581303 0.845308 -0.081138 3.597416220e-39
0.529522 0.877703 -0.089943 2.030450646e-39
0.555380 0.878329 -0.081274 2.214843307e-39
0.565322 0.874969 -0.081204 3.597779157e-39
0.537338 0.892633 -0.080075 2.214484575e-39
0.549970 0.892605 -0.078159 2.583627228e-39
0.548651 0.907491 -0.083093 2.399594701e-39
1.314867 1.018149 -0.075083 0.000000000e+00
1.300241 1.023461 -0.089890 0.000000000e+00
1.313660 1.034560 -0.077939 1.014510661e-39
1.299334 1.052766 -0.078880 8.576340367e-39
1.305773 1.048023 -0.081078 5.533885982e-39
1.295694 1.063129 -0.085346 8.576337564e-39
1.208810 1.141339 -0.071863 0.000000000e+00
1.199073 1.158847 -0.084443 0.000000000e+00
1.207696 1.155973 -0.075521 0.000000000e+00
1.191829 1.174912 -0.081702 4.979636006e-39
1.206350 1.166688 -0.074886 5.162951068e-39
1.149790 1.201175 -0.077546 3.044246645e-39
1.175908 1.190407 -0.080930 4.611569550e-39
1.182369 1.187502 -0.084849 5.902667100e-39
1.139342 1.211931 -0.083601 3.689971984e-39
1.150639 1.209405 -0.085337 3.782167614e-39
1.167388 1.207932 -0.084969 5.626081612e-39
0.588553 1.425304 -0.079080 3.045321441e-39
0.684124 1.423392 -0.073764 2.398154166e-39
0.597548 1.445507 -0.080686 3.413023559e-39
0.658877 1.460135 -0.074085 3.505579323e-39
0.665665 1.458187 -0.079956 3.689614653e-39
0.689308 1.457167 -0.080201 2.030091914e-39
0.609577 1.473154 -0.080110 3.413382292e-39
0.634146 1.474967 -0.087229 3.409779553e-39
0.651301 1.477805 -0.079620 3.135717803e-39
0.670812 1.465611 -0.081878 3.689974786e-39
0.686212 1.467671 -0.081660 2.123007811e-39
0.618186 1.486156 -0.081287 3.597412016e-39
0.630351 1.489155 -0.078468 2.952044009e-39
2.261135 -0.649522 -0.053995 2.399596102e-39
2.295072 -0.642107 -0.056137 1.846422323e-39
2.318870 -0.644336 -0.062653 2.399596102e-39
2.339022 -0.644733 -0.069138 1.662033866e-39
2.343566 -0.644338 -0.069418 1.477285275e-39
1.954774 -0.633374 -0.054511 1.963587970e-38
1.968733 -0.629871 -0.062498 1.991282673e-38
1.986769 -0.625218 -0.062335 1.936073055e-38
2.010403 -0.633120 -0.053176 1.336765447e-38
2.032408 -0.634718 -0.066299 3.132860556e-39
2.091126 -0.628458 -0.065474 2.765871698e-39
2.108346 -0.626623 -0.059223 2.581839171e-39
2.135804 -0.627864 -0.061592 2.583988763e-39
2.149673 -0.628499 -0.064046 4.060196439e-39
2.166313 -0.628883 -0.065030 4.152392069e-39
2.187829 -0.626670 -0.061318 2.952769881e-39
2.209158 -0.630895 -0.062349 7.563630374e-39
2.224656 -0.629345 -0.063306 1.477641205e-39
2.280151 -0.630383 -0.066446 1.662031063e-39
2.313820 -0.631548 -0.068325 1.385444173e-39
2.333506 -0.632652 -0.064004 9.233898270e-40
2.344158 -0.635374 -0.064470 8.311955984e-40
2.406277 -0.627328 -0.057172 0.000000000e+00
1.992600 -0.611347 -0.060291 2.028412458e-38
2.008780 -0.601356 -0.059405 1.945472404e-38
2.371683 -0.614638 -0.050437 2.122649079e-39
2.476464 -0.604158 -0.061766 2.030453449e-39
2.036438 -0.587648 -0.063402 1.465946528e-38
2.042884 -0.585580 -0.055939 1.567325708e-38
2.037146 -0.573052 -0.066406 2.028267143e-38
2.049300 -0.568592 -0.056568 2.037486706e-38
2.072523 -0.548431 -0.062388 2.037522719e-38
2.082552 -0.546893 -0.057438 2.037522719e-38
2.077768 -0.535329 -0.060234 2.046814169e-38
2.088143 -0.525735 -0.061015 1.982277088e-38
2.099421 -0.516631 -0.058988 1.963766075e-38
2.108920 -0.504397 -0.060619 2.037486986e-38
2.098648 -0.494418 -0.067720 2.231170817e-38
2.111788 -0.490262 -0.061307 2.221950973e-38
2.131353 -0.482056 -0.059806 2.203547721e-38
2.153321 -0.470159 -0.060916 2.092840798e-38
2.164958 -0.463048 -0.055433 1.963802369e-38
2.174694 -0.451856 -0.059121 1.963802509e-38
2.189892 -0.442317 -0.060830 1.936179693e-38
2.193971 -0.431305 -0.059499 1.917704414e-38
2.205841 -0.419669 -0.060228 1.917704414e-38
2.214417 -0.409633 -0.059467 1.917704274e-38
2.224808 -0.400135 -0.060431 1.908484711e-38
1.315693 -0.379096 -0.057398 2.121567276e-39
1.327220 -0.379317 -0.057507 4.978555605e-39
2.234966 -0.390569 -0.061382 1.797849955e-38
2.246409 -0.380648 -0.059588 1.696398609e-38
1.280614 -0.357672 -0.051658 1.385078435e-39
1.292554 -0.364411 -0.059532 1.569472497e-39
1.307421 -0.374338 -0.060508 1.661668127e-39
1.331305 -0.376678 -0.067400 4.241350700e-39
1.348622 -0.374485 -0.059453 4.331388330e-39
2.258125 -0.373117 -0.060513 1.659520217e-38
2.270632 -0.364053 -0.062983 1.631861528e-38
2.282736 -0.357601 -0.062441 1.659520217e-38
1.256077 -0.339963 -0.058953 1.569471096e-39
1.270139 -0.348442 -0.060165 1.385439970e-39
1.283794 -0.356495 -0.061216 1.477274064e-39
2.292083 -0.348025 -0.062689 1.263043415e-38
2.305170 -0.344035 -0.054439 1.668739779e-38
1.233129 -0.322810 -0.060150 1.476915332e-39
1.246893 -0.332456 -0.060809 1.569112363e-39
2.138528 -0.318269 -0.065049 1.926816357e-38
2.149582 -0.320699 -0.059974 2.111136011e-38
2.177809 -0.319044 -0.069961 1.299778875e-38
2.181207 -0.318229 -0.064558 1.327473157e-38
2.247482 -0.318252 -0.062324 1.788558645e-38
2.313075 -0.327510 -0.060060 1.576508136e-38
2.322219 -0.322503 -0.054146 1.585763432e-38
1.198811 -0.299486 -0.057062 1.476915332e-39
1.211222 -0.307873 -0.060512 1.385079836e-39
1.222975 -0.316234 -0.062104 1.385079836e-39
1.888374 -0.300133 -0.057336 1.401553080e-38
2.140200 -0.312734 -0.065393 1.724056877e-38
2.148514 -0.306367 -0.058697 1.217016226e-38
2.185239 -0.317262 -0.056359 1.281519115e-38
2.220024 -0.314179 -0.066810 1.733098335e-38
2.232858 -0.314301 -0.060599 1.797778629e-38
2.247438 -0.315625 -0.050896 1.982169608e-38
2.275304 -0.317105 -0.063801 1.604167246e-38
2.285222 -0.314817 -0.052707 1.659484764e-38
2.311140 -0.314237 -0.062807 1.539665898e-38
2.324393 -0.313918 -0.054588 1.631753487e-38
1.175207 -0.281522 -0.059395 1.384719702e-39
1.189594 -0.291537 -0.060710 1.385079836e-39
1.746956 -0.282460 -0.059756 2.019408835e-38
1.769255 -0.282429 -0.061103 1.890262926e-38
1.791823 -0.281275 -0.064974 1.881079377e-38
1.809885 -0.280434 -0.063675 1.844201125e-38
1.830358 -0.278933 -0.064990 1.825689972e-38
1.847441 -0.278542 -0.068552 1.816434536e-38
1.879707 -0.293023 -0.054653 1.613603029e-38
1.889514 -0.287751 -0.057128 1.355347646e-38
1.906027 -0.287819 -0.065290 1.005076139e-38
1.937011 -0.291186 -0.055327 1.300101594e-38
1.955062 -0.286089 -0.066979 1.161844443e-38
1.998941 -0.278738 -0.056605 1.290845877e-38
2.097016 -0.282589 -0.050632 5.346958372e-39
2.112191 -0.285484 -0.066043 6.177446315e-39
2.133804 -0.281551 -0.059939 6.454031803e-39
2.153742 -0.288596 -0.062730 6.915012755e-39
2.164091 -0.283315 -0.053901 7.007567118e-39
1.153919 -0.263725 -0.059947 1.292884206e-39
1.165583 -0.273092 -0.061709 1.384362371e-39
1.740010 -0.274210 -0.052576 2.010225145e-38
1.752038 -0.271889 -0.060608 2.093201212e-38
1.766437 -0.260954 -0.063501 1.457051086e-38
1.795428 -0.275428 -0.053246 1.844201125e-38
1.814791 -0.274163 -0.054400 1.825761859e-38
1.829659 -0.275962 -0.055987 1.798103170e-38
1.850797 -0.276329 -0.057590 1.761188904e-38
1.868418 -0.277055 -0.062345 1.779556144e-38
1.888661 -0.275874 -0.057633 1.770336300e-38
1.918215 -0.272034 -0.060339 1.318505407e-38
1.928271 -0.274020 -0.068588 1.429176176e-38
2.012650 -0.274900 -0.062862 1.346235422e-38
2.026548 -0.271010 -0.061130 1.373749637e-38
2.052032 -0.269027 -0.059865 1.336871665e-38
2.076500 -0.267429 -0.055750 1.391936389e-38
2.093288 -0.268019 -0.062128 1.438214832e-38
2.111924 -0.271681 -0.059236 8.573462099e-39
2.137295 -0.266617 -0.064526 9.771647957e-39
2.151178 -0.262903 -0.065433 4.239908764e-39
2.162769 -0.275741 -0.056978 5.716824096e-39
1.133019 -0.244756 -0.059956 1.292884206e-39
1.144753 -0.254279 -0.061655 1.384719702e-39
1.755968 -0.250130 -0.061953 3.964053352e-39
1.764221 -0.254206 -0.063285 4.427551036e-39
1.112362 -0.225554 -0.059581 1.476916733e-39
1.123600 -0.235016 -0.061565 1.293242938e-39
1.092373 -0.206537 -0.059075 1.384722505e-39
1.102587 -0.215191 -0.062197 1.568752230e-39
1.074552 -0.184773 -0.059612 1.384722505e-39
1.083917 -0.194185 -0.059730 1.476558001e-39
1.056509 -0.163757 -0.058840 1.476916733e-39
1.065452 -0.172405 -0.060938 1.385081237e-39
1.037879 -0.141360 -0.059472 1.293244340e-39
1.046822 -0.151029 -0.059600 1.385079836e-39
2.355268 -0.152259 -0.065567 9.219906304e-39
2.371733 -0.143692 -0.056423 1.005003131e-38
1.019500 -0.117856 -0.052568 1.385081237e-39
1.029421 -0.127638 -0.059931 1.384721103e-39
2.354544 -0.127366 -0.054952 1.650336527e-38
2.365837 -0.132573 -0.055780 1.659520076e-38
1.014251 -0.106499 -0.059950 1.384722505e-39
1.021734 -0.115267 -0.064526 1.384363772e-39
2.338486 -0.112003 -0.050604 1.622678258e-38
2.342435 -0.101597 -0.051148 1.558141317e-38
0.997542 -0.082950 -0.060214 1.293245741e-39
1.004555 -0.092727 -0.060380 1.385081237e-39
2.354605 -0.085404 -0.052255 1.576580443e-38
0.978112 -0.060607 -0.057858 1.660952063e-39
0.988183 -0.069784 -0.060816 1.384725307e-39
2.396700 -0.062508 -0.054888 0.000000000e+00
0.977282 -0.052378 -0.059297 2.030094716e-39
0.982432 -0.044484 -0.063496 2.583269897e-39
2.447212 -0.039737 -0.057878 1.530554235e-38
0.989600 -0.034362 -0.059927 2.213769913e-39
1.004709 -0.021095 -0.063250 0.000000000e+00
2.494681 -0.024312 -0.053681 1.548957067e-38
1.015624 -0.010253 -0.064857 0.000000000e+00
1.193671 0.258944 -0.061060 1.189466698e-38
1.172914 0.276027 -0.059148 1.364602661e-38
1.185789 0.266554 -0.061956 1.383041787e-38
1.138970 0.301568 -0.059433 1.189430965e-38
1.150981 0.292789 -0.059223 1.392297224e-38
1.164779 0.285239 -0.064773 1.429139462e-38
1.119268 0.320304 -0.061445 1.401553080e-38
1.129647 0.311460 -0.061639 1.364638815e-38
1.141172 0.303674 -0.064236 1.438395319e-38
1.094543 0.337722 -0.059925 1.300029847e-38
1.109350 0.328126 -0.061479 1.438359305e-38
1.072029 0.356262 -0.060458 1.410700757e-38
1.085300 0.346795 -0.061138 1.493641090e-38
1.051118 0.374166 -0.059755 1.539810512e-38
1.061827 0.364286 -0.060117 1.502968133e-38
1.043284 0.388029 -0.060956 1.705618452e-38
1.051699 0.409788 -0.061172 4.885639708e-39
0.975923 0.434869 -0.055727 3.595621157e-39
0.986901 0.434253 -0.062038 3.227558905e-39
1.004071 0.440054 -0.060494 6.639516076e-39
1.050353 0.431657 -0.062840 3.042445976e-39
1.072378 0.438256 -0.062481 8.293991338e-40
0.968403 0.452250 -0.061266 3.964043543e-39
1.016767 0.448340 -0.059494 7.101569021e-39
1.054479 0.450849 -0.062028 3.043160639e-39
1.070414 0.450539 -0.056807 3.318674134e-39
1.081474 0.446805 -0.058854 0.000000000e+00
0.955852 0.474528 -0.057014 2.674743858e-39
0.962742 0.470367 -0.062811 3.503426928e-39
1.037618 0.466214 -0.059470 4.981070936e-39
1.069523 0.471852 -0.064117 1.567678835e-39
0.950338 0.492798 -0.060524 2.029371646e-39
0.963967 0.485342 -0.067107 2.950970614e-39
1.066976 0.490315 -0.061005 4.427895755e-39
1.085289 0.490194 -0.056577 7.379209687e-40
0.868874 0.520171 -0.057026 2.305959937e-39
0.937019 0.517186 -0.062091 1.936817284e-39
0.945013 0.508220 -0.060168 1.752784757e-39
1.091039 0.510207 -0.059517 5.165818125e-39
0.856480 0.532236 -0.062915 3.687815385e-39
0.864681 0.527883 -0.060061 3.596338622e-39
0.895979 0.539715 -0.054454 1.660230395e-39
0.936267 0.530183 -0.061753 2.306317268e-39
0.942990 0.534414 -0.054849 3.043523575e-39
1.666823 0.531090 -0.050973 0.000000000e+00
0.747200 0.550904 -0.051964 1.937178819e-39
0.820160 0.558706 -0.068020 7.006140596e-39
0.830753 0.554798 -0.059416 4.056958039e-39
0.851620 0.553009 -0.060619 1.844623056e-39
0.861383 0.545622 -0.050399 2.213399970e-39
1.579260 0.559434 -0.054008 2.674743858e-39
1.619867 0.554844 -0.055740 2.859855385e-39
0.753141 0.572900 -0.057783 2.029374449e-39
0.770640 0.579146 -0.059328 1.844983189e-39
0.828438 0.571809 -0.059176 8.203607587e-39
0.756706 0.592396 -0.057710 2.029374449e-39
0.768069 0.596683 -0.060147 9.223122284e-40
0.835293 0.590550 -0.061414 5.161154604e-39
0.846143 0.599859 -0.052265 8.295445885e-39
0.759406 0.616055 -0.052060 2.030094716e-39
0.768121 0.611949 -0.058869 1.752788961e-39
0.787480 0.611847 -0.064505 9.226709609e-40
0.839233 0.604794 -0.065444 7.281649887e-39
0.847408 0.613865 -0.059794 0.000000000e+00
0.773747 0.637255 -0.060661 0.000000000e+00
0.781204 0.629636 -0.067293 0.000000000e+00
0.855898 0.633515 -0.061405 3.778940423e-39
0.770483 0.652355 -0.052508 1.015586858e-39
0.782289 0.656510 -0.064525 1.938617953e-39
0.859477 0.653644 -0.069600 0.000000000e+00
0.731948 0.676998 -0.059617 1.753866559e-39
0.749168 0.671041 -0.061404 1.845702055e-39
0.769610 0.671093 -0.059864 3.507735921e-39
0.783972 0.672202 -0.063312 2.399594701e-39
0.711746 0.693700 -0.059593 2.397798236e-39
0.722623 0.685022 -0.060363 1.845343323e-39
0.794921 0.687407 -0.067141 0.000000000e+00
0.673182 0.719284 -0.056877 2.490709929e-39
0.689906 0.712620 -0.060120 2.306678803e-39
0.702488 0.705391 -0.059722 2.582546827e-39
0.656912 0.739621 -0.053859 2.582542623e-39
0.669871 0.730135 -0.061817 2.674741055e-39
0.681131 0.724853 -0.061551 2.582545426e-39
0.636040 0.758986 -0.054707 2.768375819e-39
0.648680 0.751041 -0.061735 2.491070063e-39
0.664469 0.744847 -0.065889 2.582905559e-39
0.616059 0.777067 -0.056214 3.597774953e-39
0.629122 0.768786 -0.061787 3.505221992e-39
0.595033 0.796579 -0.054662 3.320467796e-39
0.609981 0.790684 -0.062123 3.874004511e-39
0.622888 0.785165 -0.069663 4.611928282e-39
0.578021 0.821128 -0.051467 3.412667629e-39
0.590113 0.810695 -0.060468 3.412306094e-39
0.603925 0.806040 -0.068124 4.703047715e-39
0.559829 0.841691 -0.055690 3.505580724e-39
0.572791 0.832150 -0.058684 3.320111866e-39
0.586024 0.830242 -0.067142 2.859132315e-39
0.554840 0.856520 -0.059695 3.321190866e-39
0.567335 0.851057 -0.063015 3.781445945e-39
0.530312 0.872471 -0.054018 2.307397670e-39
0.550567 0.872268 -0.059956 2.676181590e-39
0.564500 0.864984 -0.061617 3.782167614e-39
0.537477 0.889265 -0.057720 2.675820055e-39
0.544427 0.891075 -0.062614 2.860212716e-39
0.543838 0.907427 -0.062630 2.675820055e-39
0.548881 0.933317 -0.068867 0.000000000e+00
1.313922 1.011847 -0.062465 0.000000000e+00
1.315369 1.031449 -0.064872 3.688539857e-39
1.215366 1.119054 -0.054899 0.000000000e+00
1.212267 1.133153 -0.057857 3.318681140e-39
1.197494 1.156346 -0.056536 7.285961682e-39
1.213008 1.155696 -0.059438 6.730994241e-39
1.207804 1.165306 -0.064586 7.468916611e-39
0.574452 1.440589 -0.052219 3.138593268e-39
0.652191 1.439000 -0.050620 3.782527747e-39
0.690060 1.441238 -0.069368 2.214841906e-39
0.593372 1.451514 -0.060161 3.045681575e-39
0.654031 1.454501 -0.060374 3.413383693e-39
0.665495 1.457642 -0.058737 3.505942259e-39
0.692105 1.453467 -0.062184 2.030093315e-39
0.613318 1.480988 -0.058143 3.138235937e-39
0.629422 1.473145 -0.055940 2.860212716e-39
0.647077 1.473444 -0.060142 3.320830732e-39
0.675787 1.469769 -0.063480 3.598498023e-39
0.688467 1.471497 -0.059952 2.122650480e-39
0.615451 1.488261 -0.057489 3.507018456e-39
0.629369 1.490115 -0.066695 2.860214118e-39
0.644478 1.484865 -0.068871 3.504501724e-39
2.217698 -0.661835 -0.040917 2.399596102e-39
2.226595 -0.652625 -0.039160 2.307400472e-39
2.263462 -0.645005 -0.049092 2.491791732e-39
2.315678 -0.640218 -0.041281 0.000000000e+00
1.956731 -0.633432 -0.041779 1.852989088e-38
1.969012 -0.625382 -0.039495 2.157378580e-38
1.983695 -0.624254 -0.041507 1.926889225e-38
2.010434 -0.633117 -0.046084 1.263044816e-38
2.280582 -0.621548 -0.040365 2.305961339e-39
2.288746 -0.629549 -0.043090 2.030454850e-39
2.330205 -0.627743 -0.039747 1.938257819e-39
2.350695 -0.623524 -0.038151 2.398877236e-39
2.373011 -0.621354 -0.050225 0.000000000e+00
1.978234 -0.613863 -0.037687 2.092949539e-38
1.989516 -0.608080 -0.038356 2.028412598e-38
2.006384 -0.599633 -0.045028 1.917813855e-38
2.366685 -0.615138 -0.039178 2.490352598e-39
2.019859 -0.595917 -0.033907 0.000000000e+00
2.031027 -0.590405 -0.044367 1.272335986e-38
2.045450 -0.582054 -0.039228 1.963730763e-38
2.040846 -0.576724 -0.045504 2.028267143e-38
2.047876 -0.569490 -0.038837 2.028267143e-38
2.062234 -0.561196 -0.032466 2.019119467e-38
2.671527 -0.574345 -0.035845 4.978919942e-39
2.704719 -0.573516 -0.030889 6.085263297e-39
2.072243 -0.548456 -0.041392 2.028303016e-38
2.078544 -0.533033 -0.044428 2.028303156e-38
2.087468 -0.527845 -0.038776 2.009863890e-38
2.101718 -0.520702 -0.030816 1.991460778e-38
2.111417 -0.509568 -0.039994 1.991424904e-38
2.127649 -0.498643 -0.038014 1.972985778e-38
2.132749 -0.491735 -0.042882 1.972985778e-38
2.145362 -0.483504 -0.040337 1.954510779e-38
2.153808 -0.474736 -0.038877 1.936143400e-38
2.167574 -0.463208 -0.039692 1.917704274e-38
2.174937 -0.452210 -0.043425 1.908448838e-38
2.188579 -0.444352 -0.038285 1.899193401e-38
2.193249 -0.431908 -0.043144 1.908412824e-38
2.206113 -0.423526 -0.036441 1.908412964e-38
2.216967 -0.411602 -0.039333 1.908448838e-38
2.226786 -0.400985 -0.042361 1.908448838e-38
1.310434 -0.380916 -0.040305 1.845341922e-39
1.329085 -0.382722 -0.040317 4.055880440e-39
2.235844 -0.391231 -0.040811 1.834692194e-38
2.246928 -0.382232 -0.037872 1.696362875e-38
1.278565 -0.358430 -0.038567 1.385439970e-39
1.289935 -0.366179 -0.040330 1.477635599e-39
1.303689 -0.374366 -0.043269 1.569473898e-39
1.355817 -0.375792 -0.044661 5.806163879e-39
2.257044 -0.373343 -0.046223 1.641009344e-38
2.270132 -0.367171 -0.039428 1.677887596e-38
1.255834 -0.340142 -0.038988 1.476916733e-39
1.268026 -0.350071 -0.040567 1.385439970e-39
1.281521 -0.357336 -0.048054 1.569472497e-39
2.294641 -0.353754 -0.040005 1.318324920e-38
2.305667 -0.344279 -0.040825 1.779302929e-38
1.219525 -0.318304 -0.040502 1.385079836e-39
1.230934 -0.325726 -0.039281 1.477275466e-39
1.244519 -0.334908 -0.041402 1.476916733e-39
2.158278 -0.318593 -0.043788 1.659016590e-38
2.317139 -0.331132 -0.040604 1.751680113e-38
2.325096 -0.325697 -0.038110 1.650229047e-38
1.196339 -0.301361 -0.038988 1.477635599e-39
1.210119 -0.310282 -0.040773 1.569471096e-39
1.885839 -0.300855 -0.047057 1.383077240e-38
2.151664 -0.308857 -0.041629 1.245034067e-38
2.162592 -0.309785 -0.033113 1.917488754e-38
2.193705 -0.315231 -0.045549 1.419703959e-38
2.204814 -0.312567 -0.034789 1.945434989e-38
2.233668 -0.312260 -0.044627 1.954546793e-38
2.252406 -0.313572 -0.037711 1.880826162e-38
2.276688 -0.316785 -0.034740 1.816289221e-38
2.286292 -0.314570 -0.043988 1.742496704e-38
2.311531 -0.314147 -0.036255 1.806997631e-38
2.325698 -0.314162 -0.043960 1.714801861e-38
1.173494 -0.283675 -0.039412 1.384721103e-39
1.186436 -0.292792 -0.040148 1.385082638e-39
1.758543 -0.277621 -0.048655 1.945616317e-38
1.880481 -0.292798 -0.049658 1.465981841e-38
1.883833 -0.295032 -0.046367 1.595055442e-38
1.964579 -0.283401 -0.049324 1.345982488e-38
2.073292 -0.279920 -0.044104 9.126254725e-39
2.082832 -0.281214 -0.044502 8.482685985e-39
2.108576 -0.279520 -0.043003 8.851105568e-39
2.134676 -0.277837 -0.047078 5.441663728e-39
2.170006 -0.288518 -0.042030 9.314974596e-39
2.186784 -0.281905 -0.037959 9.959629343e-39
2.296626 -0.295983 -0.030361 0.000000000e+00
1.152663 -0.266146 -0.040705 1.292525474e-39
1.164758 -0.276173 -0.040960 1.292884206e-39
1.752008 -0.267343 -0.044379 2.074726213e-38
1.773423 -0.268960 -0.040952 1.991642246e-38
1.792934 -0.267897 -0.039957 1.954727980e-38
1.810310 -0.269181 -0.042015 1.844129098e-38
1.830482 -0.270107 -0.043015 1.770372454e-38
1.850903 -0.272677 -0.045214 1.779591737e-38
1.870555 -0.272779 -0.044961 1.797994849e-38
1.891630 -0.270110 -0.042753 1.834800654e-38
2.074040 -0.269391 -0.040433 8.574885819e-39
2.107009 -0.274737 -0.034797 2.675464125e-39
2.129133 -0.274061 -0.035771 3.504504527e-39
2.153830 -0.272796 -0.042528 1.171061764e-38
2.172710 -0.271010 -0.040013 5.717551369e-39
2.190056 -0.270764 -0.033922 6.086702430e-39
1.119693 -0.238358 -0.039138 1.292884206e-39
1.130993 -0.247104 -0.040082 1.568750828e-39
1.143352 -0.255620 -0.043056 1.568390695e-39
1.763466 -0.252413 -0.047665 1.890370826e-38
2.090691 -0.253053 -0.045985 7.465654388e-39
2.108951 -0.247941 -0.038647 0.000000000e+00
1.098421 -0.220117 -0.032506 1.385078435e-39
1.111189 -0.227440 -0.040284 1.476915332e-39
1.122580 -0.236858 -0.043887 1.568393497e-39
2.160519 -0.228072 -0.044519 0.000000000e+00
1.077892 -0.197642 -0.032396 1.477274064e-39
1.090557 -0.207794 -0.039879 1.569110962e-39
1.102106 -0.216119 -0.043666 1.568393497e-39
1.072324 -0.187122 -0.039620 1.476916733e-39
1.082377 -0.195068 -0.043517 1.292885607e-39
1.054092 -0.166162 -0.039561 1.476916733e-39
1.062983 -0.175943 -0.042092 1.385081237e-39
2.319911 -0.177224 -0.035131 3.136443676e-39
2.337212 -0.166396 -0.045477 2.860571449e-39
2.370644 -0.159794 -0.034510 2.490354000e-39
2.382007 -0.168514 -0.031517 3.135364676e-39
1.037236 -0.143492 -0.039320 1.384721103e-39
1.044677 -0.153287 -0.040027 1.476916733e-39
2.379579 -0.146184 -0.037401 2.674026393e-39
2.381769 -0.147567 -0.038496 4.056959440e-39
1.019137 -0.120476 -0.039123 1.292884206e-39
1.027925 -0.129115 -0.040417 1.384719702e-39
2.337238 -0.121504 -0.050208 1.641152977e-38
2.355565 -0.120471 -0.039939 1.677959062e-38
2.372148 -0.130006 -0.038118 1.705618031e-38
1.011120 -0.107168 -0.039814 1.385081237e-39
2.352474 -0.107662 -0.038651 1.622641684e-38
0.995510 -0.086489 -0.040018 1.385081237e-39
1.003760 -0.095913 -0.043848 1.292885607e-39
2.356214 -0.091717 -0.040597 1.622677838e-38
2.366510 -0.081615 -0.040064 1.595054882e-38
0.975060 -0.063666 -0.039573 1.661310796e-39
0.984744 -0.072740 -0.040874 1.477278268e-39
2.375515 -0.075620 -0.037364 1.585835319e-38
0.971103 -0.054216 -0.040446 2.121930213e-39
2.430079 -0.051748 -0.036877 7.836981666e-39
2.443459 -0.047434 -0.037505 0.000000000e+00
2.487771 -0.026557 -0.033002 0.000000000e+00
2.503560 -0.021426 -0.040513 0.000000000e+00
2.517038 -0.017047 -0.047994 0.000000000e+00
1.186246 0.257546 -0.039368 1.539738485e-38
1.158036 0.280046 -0.042824 1.696578956e-38
1.171046 0.271752 -0.039068 1.705726912e-38
1.136811 0.298979 -0.039504 1.742569291e-38
1.149743 0.288167 -0.038703 1.733349728e-38
1.113967 0.316826 -0.039075 1.696507489e-38
1.126974 0.307753 -0.042213 1.733385461e-38
1.077510 0.341917 -0.035237 1.678175983e-38
1.090930 0.334514 -0.039264 1.622750705e-38
1.105278 0.326101 -0.043244 1.641189691e-38
1.058755 0.360979 -0.037329 1.751824587e-38
1.070900 0.352294 -0.039683 1.585908467e-38
1.083240 0.344655 -0.049176 1.392189324e-38
1.038185 0.377188 -0.039684 1.687251353e-38
1.050347 0.368953 -0.039870 1.558249638e-38
1.038371 0.384761 -0.041046 1.530410742e-38
1.042631 0.396213 -0.040318 1.521227052e-38
1.048454 0.402754 -0.031878 1.115530407e-38
0.977086 0.432460 -0.041531 4.793085345e-39
0.990850 0.429110 -0.038982 3.503065393e-39
1.007973 0.437807 -0.035820 3.964763810e-39
1.068277 0.438805 -0.046034 1.659158401e-39
0.969625 0.453172 -0.040127 4.240633235e-39
1.013987 0.445011 -0.043268 3.965481275e-39
1.028288 0.455100 -0.033096 2.952051015e-39
1.071707 0.454941 -0.044069 3.226838637e-39
1.087540 0.457164 -0.043283 0.000000000e+00
0.956668 0.471156 -0.040268 2.582546827e-39
0.961213 0.463969 -0.038955 2.674743858e-39
1.044931 0.474926 -0.044100 2.676178788e-39
1.078569 0.468115 -0.038588 3.226837236e-39
1.088486 0.472390 -0.035753 3.411228496e-39
1.107371 0.476050 -0.038050 0.000000000e+00
0.952015 0.492836 -0.039562 1.752784757e-39
1.069555 0.495186 -0.039309 5.258015156e-39
1.090490 0.490210 -0.040970 0.000000000e+00
1.116579 0.491254 -0.035959 1.198540386e-39
0.874488 0.516137 -0.043121 3.503425527e-39
0.887465 0.516276 -0.035101 3.043523575e-39
0.948051 0.510161 -0.042620 1.844621654e-39
1.092527 0.510554 -0.042217 5.902667100e-39
1.102984 0.514437 -0.040288 4.058035637e-39
1.612078 0.517594 -0.047998 2.952052416e-39
0.849367 0.538887 -0.031885 3.780371149e-39
0.870127 0.533415 -0.039843 2.858414850e-39
0.911952 0.536184 -0.035102 1.477274064e-39
0.946378 0.524133 -0.049994 1.568393497e-39
1.534710 0.538982 -0.037622 3.044246645e-39
1.553048 0.539496 -0.036475 3.135722007e-39
1.568017 0.536595 -0.040057 3.135722007e-39
1.591200 0.537494 -0.039387 3.135722007e-39
1.609090 0.531969 -0.040705 3.136082141e-39
1.633141 0.537349 -0.035738 3.135722007e-39
1.651685 0.534388 -0.038935 2.765854883e-40
1.670715 0.534196 -0.039158 0.000000000e+00
0.835647 0.551425 -0.045195 6.361131320e-39
0.848589 0.548305 -0.040780 3.596340023e-39
0.864164 0.545227 -0.042634 1.844621654e-39
1.553595 0.545090 -0.043494 3.044246645e-39
1.605967 0.547112 -0.048838 3.136082141e-39
1.633774 0.543035 -0.037951 3.320113267e-39
0.760141 0.577048 -0.050021 2.121570079e-39
0.839561 0.569857 -0.043724 8.296163350e-39
0.848391 0.575831 -0.035697 8.573467705e-39
0.747594 0.599213 -0.037657 2.122290346e-39
0.846353 0.588324 -0.045028 4.332474336e-39
0.751336 0.612255 -0.036052 2.214485976e-39
0.761202 0.611052 -0.039010 2.214485976e-39
0.752902 0.634726 -0.035344 1.568040370e-39
0.777061 0.622431 -0.049174 2.122290346e-39
0.736074 0.661386 -0.031324 2.122290346e-39
0.750449 0.654766 -0.036921 2.029375850e-39
0.764019 0.654795 -0.047118 2.768378621e-39
0.716733 0.678089 -0.039072 2.029734583e-39
0.730381 0.670021 -0.040610 1.845703457e-39
0.748918 0.665827 -0.047256 1.846420922e-39
0.694236 0.697652 -0.037732 2.583627228e-39
0.706647 0.688757 -0.040038 2.490354000e-39
0.671361 0.716897 -0.040588 2.398875835e-39
0.686539 0.708830 -0.043092 2.491070063e-39
0.637409 0.741491 -0.036051 2.859853984e-39
0.651592 0.735430 -0.040526 2.767655551e-39
0.663066 0.726338 -0.044657 2.214841906e-39
0.620770 0.760707 -0.033888 2.951330748e-39
0.629657 0.752393 -0.040408 2.952046811e-39
0.642225 0.747573 -0.047335 3.228993834e-39
0.612204 0.772369 -0.039979 3.228636503e-39
0.624014 0.768259 -0.045138 3.596694552e-39
0.580287 0.801226 -0.033529 2.676182992e-39
0.595205 0.793330 -0.039686 3.044243842e-39
0.603506 0.784988 -0.041899 3.320830732e-39
0.577163 0.814707 -0.039812 3.044245244e-39
0.587735 0.807468 -0.042468 3.228273567e-39
0.515962 0.838752 -0.031709 2.306681606e-39
0.556767 0.838796 -0.036109 2.860214118e-39
0.569790 0.833227 -0.040241 3.044965511e-39
0.519243 0.848177 -0.038645 2.214843307e-39
0.553486 0.853815 -0.038784 2.768018488e-39
0.564681 0.849338 -0.045668 3.137161141e-39
0.533074 0.873900 -0.041259 2.675822858e-39
0.546802 0.869980 -0.040901 2.583628629e-39
0.992474 0.878415 -0.033731 4.979282879e-39
0.539699 0.884391 -0.043777 2.768378621e-39
0.543278 0.883355 -0.043938 2.860574251e-39
0.996659 0.894799 -0.034539 5.901959445e-39
1.004324 0.897702 -0.040297 4.977122076e-39
1.004331 0.917058 -0.035725 0.000000000e+00
0.989626 0.934555 -0.033436 4.611579359e-39
1.006835 0.932601 -0.037324 5.809763815e-39
0.979016 0.948430 -0.035771 5.257310303e-39
0.982186 0.953879 -0.030764 5.994873941e-39
1.012716 0.945642 -0.042587 4.242436706e-39
0.985237 0.974225 -0.031628 7.562199648e-39
1.000658 1.000890 -0.038727 0.000000000e+00
1.029921 0.989349 -0.045125 0.000000000e+00
1.004100 1.027604 -0.034362 5.717568185e-39
1.022268 1.048778 -0.035906 0.000000000e+00
1.233125 1.119292 -0.044419 0.000000000e+00
1.241738 1.116218 -0.035409 0.000000000e+00
1.182867 1.133179 -0.039753 8.207199115e-39
1.215882 1.137119 -0.042477 7.100854359e-39
1.231169 1.135147 -0.041022 6.546244249e-39
1.242253 1.127715 -0.035803 0.000000000e+00
1.214149 1.155135 -0.041797 6.271453824e-39
1.232147 1.144788 -0.035967 8.944046689e-39
1.208307 1.165181 -0.041897 8.023169390e-39
0.575604 1.434483 -0.039981 3.508094653e-39
0.587581 1.437983 -0.047400 3.046041708e-39
0.656707 1.437822 -0.045271 3.413748030e-39
0.588137 1.452833 -0.036148 3.784682944e-39
0.627319 1.460435 -0.036531 2.307396268e-39
0.654590 1.454334 -0.043044 3.137518472e-39
0.668942 1.452940 -0.039275 3.782530550e-39
0.687724 1.458488 -0.036301 2.030813583e-39
0.599379 1.467991 -0.038305 3.230790299e-39
0.610007 1.473408 -0.036631 2.953844677e-39
0.629341 1.470277 -0.040295 2.583983158e-39
0.649183 1.472673 -0.040221 2.583984559e-39
0.670943 1.466833 -0.041506 3.414105362e-39
0.686495 1.465240 -0.041329 2.307041740e-39
0.616422 1.485046 -0.043032 3.231149032e-39
2.184378 -0.660567 -0.029253 2.491791732e-39
2.157543 -0.654714 -0.013287 2.583987362e-39
2.169875 -0.641104 -0.014209 3.780372550e-39
2.188786 -0.656021 -0.024553 2.399596102e-39
2.217015 -0.653485 -0.025872 2.399596102e-39
2.238431 -0.647299 -0.027014 2.215204842e-39
1.953321 -0.632196 -0.018859 1.788416133e-38
1.971103 -0.623098 -0.021844 2.212659944e-38
2.166634 -0.637242 -0.014209 6.361850186e-39
1.990276 -0.612955 -0.020741 1.410665724e-38
2.010222 -0.602333 -0.020191 2.010045358e-38
2.021175 -0.599821 -0.019394 2.010045358e-38
2.018612 -0.594034 -0.020695 1.954620080e-38
2.032177 -0.586134 -0.021416 1.945363944e-38
2.045453 -0.586910 -0.016030 1.548922875e-38
2.497795 -0.594795 -0.016831 3.411590031e-39
2.038923 -0.576148 -0.017104 2.009864171e-38
2.052220 -0.566414 -0.020137 2.019083593e-38
2.073098 -0.549395 -0.020771 2.028303156e-38
2.081203 -0.541325 -0.024081 2.009899904e-38
2.089954 -0.530930 -0.021450 2.009899904e-38
2.106133 -0.521489 -0.024159 2.000680341e-38
2.110916 -0.509655 -0.018576 1.963766215e-38
2.123986 -0.499243 -0.020511 1.945291216e-38
2.138492 -0.489441 -0.019889 1.945291076e-38
2.143308 -0.481549 -0.021880 1.945291076e-38
2.152701 -0.472987 -0.021667 1.926887963e-38
2.166358 -0.462016 -0.019906 1.908448838e-38
2.174922 -0.453402 -0.017826 1.908412964e-38
2.190757 -0.444377 -0.019864 1.899193401e-38
2.201227 -0.439025 -0.027463 1.889973838e-38
2.195303 -0.434324 -0.017564 1.899193261e-38
2.210308 -0.424822 -0.021247 1.908412824e-38
2.217051 -0.413562 -0.023449 1.908448838e-38
2.229832 -0.405104 -0.020868 1.908448697e-38
1.308454 -0.383402 -0.020081 1.845702055e-39
1.327218 -0.387296 -0.019656 3.687100723e-39
1.346313 -0.384579 -0.018947 5.254070501e-39
2.240926 -0.391887 -0.025078 1.917704274e-38
2.248630 -0.385813 -0.018675 1.807033645e-38
1.274630 -0.360628 -0.019456 1.477637001e-39
1.289563 -0.369866 -0.019765 1.569832631e-39
1.302002 -0.375776 -0.024348 1.569832631e-39
1.367191 -0.375722 -0.030085 5.805440809e-39
2.266430 -0.371387 -0.021026 1.806997631e-38
2.284601 -0.362410 -0.021970 1.806997631e-38
1.240676 -0.339579 -0.013441 1.568393497e-39
1.252666 -0.343599 -0.020512 1.476916733e-39
1.265809 -0.353466 -0.021110 1.385798702e-39
2.299102 -0.354118 -0.011133 1.668776073e-38
2.312622 -0.347708 -0.023448 1.806997631e-38
2.324314 -0.341666 -0.022103 1.788594519e-38
1.216215 -0.320266 -0.019414 1.477634198e-39
1.231694 -0.329833 -0.020551 1.477634198e-39
1.241412 -0.335569 -0.024600 1.569472497e-39
2.219833 -0.319467 -0.015205 1.862133961e-38
2.230101 -0.322301 -0.015478 1.972805992e-38
2.249800 -0.321671 -0.017617 2.028267283e-38
2.270102 -0.320966 -0.025609 2.102024067e-38
2.287972 -0.319529 -0.023420 2.018939960e-38
2.308515 -0.320212 -0.024139 2.046634663e-38
2.332271 -0.330125 -0.020766 1.816217194e-38
2.342807 -0.323307 -0.016378 1.806997631e-38
1.192452 -0.303693 -0.019243 1.661307993e-39
1.207805 -0.312639 -0.021408 1.661665324e-39
2.151978 -0.312404 -0.029793 1.686855906e-38
2.172597 -0.307320 -0.026580 2.083225648e-38
2.185452 -0.312013 -0.025526 2.092659890e-38
2.232196 -0.308635 -0.021723 1.650156040e-38
2.258078 -0.308678 -0.022636 1.871497998e-38
2.271194 -0.307384 -0.029004 1.678139549e-38
2.312461 -0.313935 -0.012666 1.963802229e-38
2.334322 -0.314375 -0.013366 2.074257478e-38
2.346242 -0.317123 -0.013679 1.871534712e-38
1.159073 -0.279482 -0.014162 1.476558001e-39
1.171728 -0.284471 -0.020688 1.568750828e-39
1.184022 -0.294032 -0.019661 1.477276867e-39
2.205312 -0.286063 -0.027142 1.309249550e-38
2.254921 -0.295192 -0.022948 1.346163255e-38
2.297638 -0.293027 -0.024583 7.929537429e-39
2.319171 -0.279636 -0.016815 0.000000000e+00
1.139746 -0.259342 -0.019678 1.292168143e-39
1.150642 -0.267857 -0.020841 1.292526875e-39
1.162267 -0.275425 -0.026483 1.200688576e-39
2.076323 -0.271621 -0.025899 2.860215519e-39
2.089448 -0.267334 -0.023251 2.675464125e-39
2.103806 -0.259918 -0.018485 2.028656984e-39
2.125827 -0.269695 -0.030189 2.676182992e-39
2.213258 -0.266174 -0.028097 5.994865533e-39
2.235121 -0.265043 -0.028983 8.945487224e-39
1.118000 -0.240021 -0.017764 1.476556600e-39
1.129969 -0.249613 -0.020892 1.476916733e-39
2.109953 -0.252953 -0.024520 0.000000000e+00
2.216721 -0.250803 -0.028732 4.149516605e-39
2.305718 -0.238460 -0.026561 2.859856786e-39
2.391158 -0.247941 -0.021672 1.272299132e-38
2.412242 -0.244154 -0.014705 1.714873888e-38
2.421568 -0.243306 -0.011891 1.650408834e-38
1.097432 -0.220656 -0.019741 1.292885607e-39
1.108866 -0.230301 -0.020720 1.384721103e-39
2.298533 -0.231898 -0.026499 2.674386527e-39
2.318637 -0.223741 -0.021410 2.055962546e-38
2.327209 -0.224325 -0.018648 1.825509485e-38
2.343026 -0.223007 -0.016146 1.917669101e-38
2.374036 -0.220644 -0.023420 1.650373381e-38
2.397319 -0.226215 -0.024064 1.770227419e-38
2.405210 -0.228338 -0.015348 1.742496844e-38
1.079088 -0.199256 -0.017692 1.569112363e-39
1.087656 -0.209122 -0.020136 1.476916733e-39
2.325724 -0.216139 -0.015771 2.102060361e-38
2.345285 -0.205113 -0.010543 2.111279924e-38
2.362050 -0.200581 -0.017379 2.028303577e-38
2.389324 -0.216657 -0.017828 1.797814782e-38
2.412002 -0.213685 -0.012358 1.862315570e-38
1.059249 -0.180224 -0.010897 1.661668127e-39
1.070211 -0.187626 -0.020315 1.568753631e-39
2.389282 -0.185825 -0.020243 9.219560184e-39
2.402590 -0.177719 -0.012991 1.770191406e-38
1.052279 -0.167024 -0.019700 1.476916733e-39
1.062597 -0.176175 -0.021916 1.477274064e-39
2.397028 -0.165578 -0.020377 1.770227139e-38
2.403541 -0.173469 -0.017356 1.733349027e-38
1.034338 -0.145539 -0.019263 1.476558001e-39
1.043473 -0.154244 -0.023456 1.384722505e-39
2.377496 -0.140750 -0.021632 1.714802001e-38
2.389208 -0.150251 -0.018999 1.742496564e-38
1.017395 -0.122649 -0.018539 1.293244340e-39
1.025399 -0.131519 -0.021293 1.384722505e-39
2.358709 -0.117990 -0.022700 1.678031369e-38
2.369967 -0.128996 -0.019591 1.714837875e-38
1.000257 -0.100995 -0.018406 1.569472497e-39
1.007942 -0.108255 -0.020601 1.385081237e-39
2.354621 -0.107000 -0.019696 1.641188850e-38
2.361413 -0.117166 -0.013285 1.687287086e-38
0.992862 -0.088046 -0.020148 1.477635599e-39
2.368689 -0.088707 -0.022266 1.622713571e-38
2.384132 -0.079147 -0.018181 1.576615756e-38
0.973799 -0.065629 -0.019329 1.753146292e-39
0.984220 -0.073531 -0.024005 1.661309394e-39
2.400403 -0.067661 -0.028780 0.000000000e+00
2.410926 -0.064295 -0.022695 0.000000000e+00
2.421963 -0.060765 -0.016574 0.000000000e+00
0.966444 -0.053666 -0.019068 2.306321472e-39
2.438126 -0.055596 -0.010579 0.000000000e+00
2.477088 -0.036593 -0.018873 1.530517941e-38
2.488633 -0.032871 -0.012556 0.000000000e+00
1.180865 0.259811 -0.027959 1.724130165e-38
1.190815 0.256427 -0.023728 1.254003919e-38
1.158988 0.279893 -0.027711 1.742533558e-38
1.172471 0.272013 -0.026018 1.696435463e-38
1.185401 0.271026 -0.020994 1.650155059e-38
1.203962 0.274204 -0.015794 1.364493640e-38
1.138409 0.297898 -0.027442 1.760971843e-38
1.151735 0.291768 -0.026320 1.733277421e-38
1.170655 0.287527 -0.022174 1.594802368e-38
1.193706 0.294560 -0.017244 1.529790387e-38
1.209732 0.291796 -0.012779 1.539478544e-38
1.113495 0.317763 -0.027037 1.751860600e-38
1.129714 0.309007 -0.026558 1.724129745e-38
1.147918 0.310121 -0.023837 1.687107579e-38
1.188036 0.313060 -0.021177 1.179487071e-38
1.210941 0.315028 -0.015206 8.941129185e-39
1.092170 0.333491 -0.025132 1.613603309e-38
1.106416 0.332083 -0.021450 1.300209494e-38
1.131678 0.329355 -0.023832 1.641188991e-38
1.192581 0.333337 -0.022147 1.161083678e-38
1.232134 0.340874 -0.016998 0.000000000e+00
1.058590 0.360801 -0.026113 1.761080724e-38
1.071380 0.351643 -0.026364 1.678104517e-38
1.095049 0.356924 -0.023196 1.632042155e-38
1.111835 0.357934 -0.019441 0.000000000e+00
1.132711 0.353000 -0.020194 7.470711674e-39
1.189934 0.353576 -0.022793 1.217015105e-38
1.247797 0.358552 -0.015838 1.659120146e-38
1.038286 0.378034 -0.028058 1.788630532e-38
1.049538 0.370647 -0.026074 1.742641458e-38
1.073687 0.377048 -0.022986 1.705798238e-38
1.085297 0.369639 -0.023240 1.549066088e-38
1.174657 0.377200 -0.022998 1.272476956e-38
1.184501 0.368078 -0.023096 1.318502464e-38
1.255201 0.374553 -0.016076 1.318357710e-38
1.050052 0.394434 -0.024805 1.742568310e-38
1.064617 0.390483 -0.023089 1.705762225e-38
1.130896 0.394198 -0.021669 1.051280873e-38
1.155886 0.389631 -0.017889 5.442409219e-39
1.178821 0.385808 -0.023510 1.189500889e-38
1.232908 0.397186 -0.018661 1.198611431e-38
1.248665 0.390994 -0.016097 1.207939175e-38
0.976906 0.420947 -0.017955 4.332108597e-39
0.988242 0.419035 -0.019987 5.347338124e-39
1.056597 0.411901 -0.028123 0.000000000e+00
1.065135 0.414664 -0.024069 1.733384620e-38
1.097310 0.419467 -0.021112 1.724165057e-38
1.110999 0.417188 -0.021642 1.641224864e-38
1.138892 0.419529 -0.022986 6.455484950e-39
1.166925 0.414431 -0.019257 3.782883677e-39
1.190374 0.416739 -0.014109 7.102282282e-39
1.211710 0.414455 -0.016696 1.078936619e-38
1.229150 0.408152 -0.014946 1.152621236e-38
0.974624 0.431898 -0.021008 5.162229400e-39
0.987256 0.426651 -0.021432 4.701249849e-39
1.010048 0.432373 -0.017670 4.057678306e-39
1.026314 0.438811 -0.016373 2.120851213e-39
1.093387 0.432356 -0.021422 1.724164777e-38
1.131839 0.436166 -0.020914 1.595127049e-38
1.147320 0.435325 -0.023963 1.060428829e-38
1.175334 0.434584 -0.015491 5.443121078e-39
1.181777 0.422757 -0.015351 2.492870732e-39
0.970876 0.454328 -0.021190 3.043166244e-39
1.032512 0.449595 -0.017021 2.214125842e-39
1.044323 0.455353 -0.020083 2.120851213e-39
1.095757 0.452372 -0.024640 8.574905437e-39
1.116782 0.455400 -0.017623 1.401443639e-38
1.129336 0.450885 -0.015764 1.641260036e-38
1.150154 0.454637 -0.015153 1.254218458e-38
1.176709 0.454665 -0.014613 3.136799606e-39
1.182256 0.451081 -0.016342 5.073258158e-39
0.958227 0.474997 -0.020607 2.213765709e-39
0.966750 0.469609 -0.018454 2.674742457e-39
1.042343 0.464754 -0.029603 2.860211315e-39
1.067572 0.477882 -0.020401 3.135722007e-39
1.090293 0.474458 -0.020501 3.781088614e-39
1.109972 0.475143 -0.019000 1.041952569e-38
1.171821 0.468355 -0.015286 2.861649047e-39
1.189452 0.472791 -0.019851 3.229351166e-39
0.954215 0.491266 -0.019993 1.844980387e-39
1.078107 0.485416 -0.022730 4.057318172e-39
1.092366 0.491185 -0.021209 7.561110840e-39
1.111138 0.487480 -0.029114 4.334259590e-39
1.190429 0.484567 -0.017825 2.585422291e-39
0.891072 0.512419 -0.019537 3.688534252e-39
0.907172 0.510879 -0.016003 2.490349796e-39
0.921242 0.519362 -0.012487 1.752784757e-39
0.954381 0.510295 -0.018098 2.490352598e-39
0.962948 0.509417 -0.013920 3.688895787e-39
1.094622 0.504673 -0.014598 6.087058360e-39
1.106044 0.510656 -0.010430 8.207557847e-39
1.644025 0.520534 -0.019675 0.000000000e+00
0.854562 0.534703 -0.021273 4.333186196e-39
0.871509 0.532225 -0.019429 2.490352598e-39
0.884812 0.526419 -0.019436 2.489992465e-39
0.912937 0.526357 -0.028015 1.477275466e-39
0.930889 0.532690 -0.017883 1.660589127e-39
0.953838 0.526786 -0.014154 2.951330748e-39
0.966046 0.530772 -0.023982 0.000000000e+00
1.110916 0.523672 -0.011043 6.363645250e-39
1.515010 0.534531 -0.018480 3.136082141e-39
1.533031 0.539752 -0.019274 3.228277771e-39
1.551968 0.538210 -0.021980 3.320113267e-39
1.569635 0.533854 -0.020888 3.227917637e-39
1.590467 0.537990 -0.012433 3.227917637e-39
1.614901 0.535235 -0.021066 3.227917637e-39
1.630693 0.532788 -0.017865 1.383290378e-39
1.648033 0.530161 -0.021091 0.000000000e+00
0.851951 0.550427 -0.023771 8.296880815e-39
0.954998 0.550848 -0.015069 1.476199269e-39
0.961155 0.544146 -0.015094 1.568396300e-39
1.536241 0.545438 -0.028253 3.136442275e-39
1.556084 0.543393 -0.014372 3.320113267e-39
1.609537 0.547773 -0.021658 3.228277771e-39
1.624465 0.548943 -0.018327 3.135722007e-39
0.729916 0.577157 -0.021661 2.398877236e-39
0.719784 0.597829 -0.010852 2.491074267e-39
0.731589 0.595701 -0.022257 2.398519905e-39
0.746063 0.596508 -0.028954 2.398156968e-39
0.734862 0.604880 -0.020264 2.675465527e-39
0.745828 0.616440 -0.019127 2.766582157e-39
0.733159 0.630661 -0.014826 0.000000000e+00
0.743156 0.630236 -0.018502 1.291454882e-39
0.771213 0.636929 -0.019010 2.766584959e-39
0.720101 0.661117 -0.013257 3.320833535e-39
0.731970 0.655388 -0.019408 3.320834936e-39
0.746405 0.650828 -0.026346 2.398159771e-39
0.698591 0.679885 -0.012998 3.412308897e-39
0.711501 0.673786 -0.019534 3.413030566e-39
0.723671 0.665787 -0.023311 3.413030566e-39
0.690274 0.693117 -0.020333 4.150954337e-39
0.703607 0.685460 -0.026361 3.689617455e-39
0.655645 0.720426 -0.019926 2.767659755e-39
0.670545 0.710915 -0.021227 3.412670432e-39
0.637806 0.736110 -0.018784 2.859855385e-39
0.649295 0.728279 -0.022512 2.952051015e-39
0.616684 0.754402 -0.018645 2.675465527e-39
0.629203 0.747262 -0.021759 2.859855385e-39
0.598822 0.776938 -0.017143 2.583627228e-39
0.608273 0.769298 -0.022309 2.767659755e-39
0.577895 0.800251 -0.012111 2.398877236e-39
0.590834 0.792049 -0.020753 2.491431598e-39
0.601101 0.782467 -0.025279 3.136442275e-39
0.507676 0.820349 -0.017987 2.305961339e-39
0.558260 0.816414 -0.011837 3.137161141e-39
0.571350 0.812673 -0.020310 2.307400472e-39
0.584070 0.803983 -0.024624 2.491432999e-39
0.512875 0.829883 -0.026961 2.305961339e-39
0.553010 0.834838 -0.019969 3.229355369e-39
0.564877 0.827894 -0.025386 2.307400472e-39
0.519834 0.849875 -0.019799 2.582548228e-39
0.532571 0.855334 -0.018953 2.675464125e-39
0.545674 0.851589 -0.021678 2.399596102e-39
0.534022 0.867049 -0.020736 2.859495251e-39
0.547144 0.866542 -0.026130 2.492147662e-39
0.998017 0.890633 -0.027403 5.533182531e-39
1.004833 0.888946 -0.016169 7.561847923e-39
1.007079 0.911845 -0.021166 5.348429736e-39
0.989928 0.930846 -0.020742 5.256952972e-39
1.006591 0.926642 -0.019036 5.440984098e-39
0.949670 0.957450 -0.018910 9.129530961e-39
0.979974 0.955075 -0.017332 7.008671341e-39
0.983781 0.949947 -0.019992 6.547691790e-39
0.956715 0.964870 -0.019423 7.561483585e-39
0.964717 0.973916 -0.020038 8.115018899e-39
0.984691 0.973280 -0.018093 7.100506837e-39
0.985644 0.992788 -0.020096 8.022103002e-39
0.999443 1.019461 -0.025614 4.610861894e-39
1.012942 1.032563 -0.029365 0.000000000e+00
1.017199 1.050505 -0.018962 0.000000000e+00
1.035303 1.071442 -0.025942 0.000000000e+00
1.250760 1.097754 -0.016665 0.000000000e+00
1.250135 1.114082 -0.018629 2.304887944e-39
1.212286 1.139496 -0.019629 8.575990042e-39
1.235788 1.139489 -0.019973 9.590136365e-39
1.244541 1.129972 -0.020794 9.680532728e-39
1.207667 1.150461 -0.021640 6.271097894e-39
1.229578 1.145502 -0.019054 9.590139168e-39
1.212346 1.168794 -0.023564 8.667825538e-39
0.577845 1.436309 -0.017396 3.046038906e-39
0.580094 1.444216 -0.025791 3.231149032e-39
0.592606 1.453733 -0.020128 2.953484543e-39
0.604031 1.462332 -0.027391 2.953123008e-39
0.660727 1.458198 -0.012867 3.229712701e-39
0.669320 1.454099 -0.021017 3.690333519e-39
0.689872 1.455840 -0.019434 2.214485976e-39
0.612541 1.470486 -0.024098 2.860931582e-39
0.632265 1.470085 -0.023734 2.307756402e-39
0.651987 1.471794 -0.020832 3.137156937e-39
0.663367 1.466511 -0.027166 3.506299590e-39
0.682580 1.464265 -0.019423 3.782530550e-39
0.616137 1.492765 -0.014170 2.584344693e-39
0.631676 1.493179 -0.015258 2.860574251e-39
0.625864 1.503929 -0.012989 2.952769881e-39
2.098790 -0.664105 -0.005847 2.491791732e-39
2.147645 -0.663800 -0.002694 2.583987362e-39
2.165130 -0.658146 -0.000959 2.583987362e-39
2.206463 -0.658624 -0.009970 2.676182992e-39
1.913312 -0.643654 -0.008677 1.235241934e-38
1.944773 -0.640240 -0.005503 1.069397700e-38
2.103536 -0.651603 -0.006407 3.135722007e-39
2.149351 -0.655465 -0.005477 1.292173748e-39
2.183110 -0.648198 -0.006905 0.000000000e+00
2.247850 -0.637840 -0.006920 0.000000000e+00
1.956918 -0.631196 -0.003498 1.862280537e-38
1.965759 -0.626703 0.001603 2.055855487e-38
1.982222 -0.632276 0.006789 1.567146622e-38
1.975045 -0.615036 -0.003747 2.157486480e-38
1.990492 -0.609313 0.003193 1.797959396e-38
2.009756 -0.602242 -0.003288 2.037704047e-38
2.033999 -0.598233 -0.005498 0.000000000e+00
1.991469 -0.595463 0.005481 1.908594012e-38
2.031542 -0.585639 -0.000596 1.825509625e-38
2.034759 -0.573380 -0.006291 2.028267143e-38
2.052936 -0.568798 0.001761 2.028303156e-38
2.062158 -0.562618 0.000631 2.037486706e-38
2.059179 -0.552054 0.003334 2.028339030e-38
2.067648 -0.547315 -0.002315 2.028303016e-38
2.079178 -0.532942 -0.009168 2.019119467e-38
2.089264 -0.527387 -0.000840 2.009899904e-38
2.100094 -0.516525 -0.000213 2.000680341e-38
2.110224 -0.511093 0.002261 1.991460778e-38
2.127310 -0.501411 -0.000470 1.963802089e-38
2.138895 -0.492230 -0.003193 1.963766075e-38
2.146243 -0.485909 0.002125 1.954546652e-38
2.154711 -0.475744 -0.000461 1.936071513e-38
2.169325 -0.463837 -0.001230 1.926852090e-38
2.178036 -0.452840 -0.007186 1.936035500e-38
2.189982 -0.445891 -0.000318 1.926851950e-38
2.202185 -0.438848 -0.000199 1.908412824e-38
2.195582 -0.434029 -0.001484 1.908412824e-38
2.207250 -0.425263 0.000398 1.917632387e-38
1.311780 -0.401523 0.003949 1.899480808e-38
1.321188 -0.398417 0.003412 1.503039739e-38
2.217113 -0.416514 -0.003990 1.917632387e-38
2.231513 -0.407766 0.002017 1.908412824e-38
1.298036 -0.380459 0.001174 1.753862355e-39
1.309785 -0.389538 0.000307 2.215203441e-39
1.328714 -0.392285 -0.006460 1.032843008e-38
2.240061 -0.397090 -0.002424 1.926852090e-38
2.250265 -0.386868 -0.000387 1.880790008e-38
1.259459 -0.358182 0.008258 1.477274064e-39
1.273318 -0.362122 0.001455 1.569472497e-39
1.287551 -0.371972 -0.001058 1.661307993e-39
2.271190 -0.369095 -0.001227 1.825508644e-38
2.287358 -0.361829 0.006779 1.926851950e-38
1.237187 -0.339724 0.002884 1.385439970e-39
1.250947 -0.347024 -0.000732 1.477634198e-39
1.262256 -0.355904 -0.002291 1.569472497e-39
2.300079 -0.353910 -0.005357 1.668776073e-38
2.311325 -0.347277 0.003489 1.825436757e-38
2.325672 -0.343151 -0.006413 0.000000000e+00
1.213506 -0.322070 0.000611 1.477275466e-39
1.228386 -0.331836 -0.001187 1.385800103e-39
2.191814 -0.326059 -0.008406 1.898109497e-38
2.205151 -0.324216 -0.006059 1.917199246e-38
2.251737 -0.319910 -0.001875 1.807069378e-38
2.333293 -0.326948 0.001410 1.797778208e-38
2.344124 -0.328417 -0.007352 1.779338942e-38
1.179146 -0.298110 0.005894 1.476918135e-39
1.191881 -0.305517 0.000577 1.477276867e-39
1.205318 -0.313972 -0.001877 1.569112363e-39
2.220776 -0.308739 -0.009822 1.999704196e-38
2.280082 -0.305293 -0.000135 1.788486479e-38
2.284643 -0.314950 -0.000034 1.770370772e-38
2.314083 -0.305448 0.004829 1.843875883e-38
2.335967 -0.310740 -0.000405 1.853131740e-38
2.345764 -0.314510 -0.007758 1.853132020e-38
1.157822 -0.279433 -0.001003 1.476556600e-39
1.171246 -0.289174 0.000537 1.476556600e-39
1.182822 -0.295202 -0.006351 1.477276867e-39
2.325471 -0.294615 0.004290 1.843875883e-38
2.347807 -0.289360 0.009610 1.908412824e-38
2.361583 -0.280553 0.006061 1.862350882e-38
1.137418 -0.260878 0.001001 1.384721103e-39
1.148353 -0.269696 -0.001208 1.476197867e-39
2.373506 -0.270698 0.004032 1.945363243e-38
