# .PCD v0.7 - Point Cloud Data file format
VERSION 0.7
FIELDS x y z
SIZE 4 4 4
TYPE F F F
COUNT 1 1 1
WIDTH 1407
HEIGHT 1
VIEWPOINT 0 0 0 1 0 0 0
POINTS 1407
DATA ascii
1.8405089 -1.6894137 0.091696478
2.4110799 -2.6386192 0.11026625
1.6989 -1.4279734 0.055052862
3.3381205 -3.0640798 0.085974716
2.3985291 -2.6248839 0.04667072
1.6993799 -1.4283768 0.015730871
2.7228384 -2.4993091 0.0045800218
2.3717275 -2.5955529 -0.016445968
1.668709 -1.4025971 -0.023056766
2.5875916 -2.5933788 -0.060428936
2.3010211 -2.5181739 -0.076456614
1.8854512 -1.584775 -0.069701664
2.6146657 -2.6205134 -0.1266834
0.56672734 -0.6775099 -0.035445672
2.3549433 -2.1616158 -0.14717008
2.2317755 -2.2367671 -0.16415714
0.55855024 -0.66773438 -0.050362963
2.3349786 -2.1433654 -0.20207809
2.2434719 -2.2484894 -0.2213285
0.56046623 -0.67000109 -0.065971039
3.4862247 -3.2001376 -0.38582295
2.408442 -2.6357324 -0.3120546
0.58263445 -0.69650179 -0.084654048
3.486506 -3.2005079 -0.46963894
3.6790226 -4.0262203 -0.57323408
2.6674099 -2.9191396 -0.48559648
0.60120022 -0.65793687 -0.12520912
4.3838515 -4.3939629 -0.98162591
2.3372545 -2.3427272 -0.581783
2.1218808 -2.1268492 -0.58114916
1.962569 -1.9672331 -0.58644438
1.8525196 -1.701213 -0.574844
1.7479128 -1.6052625 -0.58401132
1.6294317 -1.4966081 -0.58314711
1.5399501 -1.4145198 -0.5875982
4.3765888 -4.4188037 0.77940184
4.3687105 -4.4108496 0.66806388
4.3623505 -4.4042745 0.55717319
3.8744414 -3.9116764 0.39735651
3.4749851 -3.2133682 0.25757268
1.8372395 -1.698862 0.091843195
2.409451 -2.6563225 0.11063626
1.6936548 -1.4341906 0.055052862
3.1301332 -2.8943772 0.080890603
1.6880282 -1.4294261 0.015674181
2.7254071 -2.5201347 0.0045998488
2.5583677 -2.5829546 -0.059967142
1.9742217 -1.6717753 -0.073209375
2.6219227 -2.6471207 -0.12750424
0.56934661 -0.6857326 -0.035766449
2.3470047 -2.1702325 -0.14717008
0.55865008 -0.67284942 -0.050593987
2.3153837 -2.1410682 -0.20106006
2.2380235 -2.259532 -0.22160655
0.5656507 -0.68125695 -0.06687475
3.4686182 -3.2074804 -0.38517287
2.433569 -2.6829114 -0.31658217
0.58262193 -0.70169675 -0.08502534
3.4659848 -3.2051578 -0.46845397
3.6882951 -4.0661964 -0.5769971
2.6540256 -2.925956 -0.48510894
0.60676855 -0.6689378 -0.12687857
4.3843989 -4.4268441 -0.98537499
2.339741 -2.3624744 -0.58455336
2.1278887 -2.1485636 -0.58494753
1.9525915 -1.9716321 -0.58561844
1.8405471 -1.7026953 -0.57306159
1.7448685 -1.6142958 -0.58496714
1.6182573 -1.4973165 -0.58110815
1.5234495 -1.4096929 -0.58326966
4.359901 -4.4297028 0.77890444
4.3520422 -4.4217181 0.66763586
4.3484926 -4.4179573 0.55717319
3.713805 -3.7731311 0.38209572
3.4444053 -3.2052228 0.25605115
3.0843699 -2.8700881 0.15463695
2.377003 -2.637151 0.1095262
1.6921843 -1.442098 0.055152055
3.2088585 -2.9859281 0.083167069
2.1744125 -2.4123883 0.042628374
2.7145483 -2.5259593 0.0045948923
2.1933222 -2.4333677 -0.015323376
2.553046 -2.5938296 -0.060033113
2.2168922 -2.4595172 -0.0742158
1.9628736 -1.6727824 -0.072983071
2.6220067 -2.6638918 -0.12791467
0.55447227 -0.67210269 -0.034964509
2.3489509 -2.1857612 -0.14772198
2.2164989 -2.2519062 -0.16415714
0.54890972 -0.66536003 -0.049900919
2.3174129 -2.1564898 -0.20182358
2.2421105 -2.2779272 -0.22271876
0.55081606 -0.66764706 -0.065368563
3.4585245 -3.2183616 -0.38517287
3.8657987 -4.2888861 -0.50465083
0.58041465 -0.70352364 -0.08502534
3.4588125 -3.2187421 -0.46884897
3.6435418 -4.0423045 -0.57197976
2.6235554 -2.9106872 -0.48120856
0.61527216 -0.68260986 -0.12910452
4.3621559 -4.4321485 -0.98350042
2.3323076 -2.3698132 -0.58455336
2.1183736 -2.1524391 -0.58418781
1.9436426 -1.9749671 -0.58479244
1.8323346 -1.7058121 -0.57217032
1.7284173 -1.6091828 -0.58114386
1.6163762 -1.5050287 -0.58212763
1.5359225 -1.4302175 -0.58976245
4.3464098 -4.4484916 0.77940184
4.3330269 -4.4347949 0.6672079
4.3239179 -4.4253173 0.55609894
3.6915863 -3.7781568 0.3812319
3.4501181 -3.2342155 0.2573553
3.1350729 -2.9387825 0.15771794
1.7111591 -1.4691292 0.055945609
3.2387419 -3.0359604 0.084229425
2.1735568 -2.4292839 0.042785868
2.7023537 -2.5331562 0.0045899353
2.2857401 -2.554666 -0.016034352
2.5547023 -2.6146121 -0.060296994
2.2931907 -2.5629933 -0.077084042
3.6100898 -3.0994711 -0.13465095
0.5697301 -0.69577676 -0.036087222
2.1970634 -2.2485864 -0.16332701
0.56417698 -0.68899512 -0.051518079
2.3153181 -2.1704292 -0.2023326
2.2225916 -2.2747133 -0.22160655
0.56352746 -0.68817741 -0.067175984
3.4408879 -3.2255628 -0.3845228
3.8713095 -4.3267837 -0.50743699
0.58035547 -0.70872772 -0.085396633
3.432472 -3.2177861 -0.46687403
0.5718134 -0.63908935 -0.10531008
0.60220122 -0.67305243 -0.12687857
2.5815754 -2.6422999 -0.58422673
2.3291123 -2.3839815 -0.58593857
2.1104703 -2.1601887 -0.58418781
1.933656 -1.9792781 -0.58396643
1.8431363 -1.7285212 -0.57751769
1.731007 -1.6234783 -0.58401132
1.6080279 -1.5082968 -0.58110815
1.5138189 -1.42003 -0.58326966
4.3134961 -4.447298 0.77641755
4.3112059 -4.4449368 0.66635197
3.3895504 -3.4945703 0.4375743
3.3916078 -3.4966912 0.35157415
3.4295292 -3.2386122 0.25670323
3.1475313 -2.9722087 0.15889166
2.1691055 -2.4422636 0.10076904
3.2857475 -3.1027262 0.085747071
2.1699505 -2.4432149 0.042890862
2.6872344 -2.5375512 0.0045800218
2.3029234 -2.5929334 -0.016221451
2.5451021 -2.6239579 -0.060296994
2.2705038 -2.5564311 -0.076635882
1.7751597 -1.5354154 -0.066420257
2.4855094 -2.5625188 -0.12216876
0.55457222 -0.68235224 -0.035285283
2.2718565 -2.1453104 -0.14385876
2.2305253 -2.2996345 -0.16643998
0.55409211 -0.6817615 -0.050825011
2.2957382 -2.1679378 -0.20131457
2.2253525 -2.2943015 -0.22271876
0.56100142 -0.69023824 -0.067175984
3.4319413 -3.24089 -0.38484782
3.8501327 -4.3349848 -0.50674045
0.57775396 -0.71085006 -0.085396633
3.429337 -3.238544 -0.468059
0.5758853 -0.64840728 -0.091148823
0.59055853 -0.66492832 -0.10921045
0.60499108 -0.68117833 -0.12799156
2.55812 -2.6375635 -0.58110255
2.3148735 -2.3868461 -0.58455336
2.1107411 -2.1763668 -0.58646685
1.9291133 -1.9891616 -0.58479244
1.8396231 -1.7379429 -0.57840896
1.7222217 -1.6271443 -0.5830555
1.6137345 -1.5248063 -0.58518606
1.5225985 -1.4387931 -0.58868033
4.2995033 -4.4608274 0.77641755
4.2834206 -4.4441414 0.66421211
3.3647313 -3.4908595 0.43578389
3.3667622 -3.4929664 0.35013443
3.4164426 -3.246619 0.25648588
3.184541 -3.026139 0.16123909
2.2196245 -2.5150139 0.10348253
3.3513606 -3.1846607 0.087720014
2.1781437 -2.4680128 0.04320585
2.6763496 -2.5432255 0.0045750653
2.5396216 -2.6348202 -0.060362965
0.60861534 -0.6896103 -0.020615499
1.7703273 -1.5409846 -0.066420257
2.2111142 -2.2939985 -0.10903528
0.56498092 -0.69963866 -0.036087222
2.282485 -2.168952 -0.14496253
2.2066567 -2.2893739 -0.16519479
0.55947411 -0.69281936 -0.051518079
2.2831287 -2.1696396 -0.20080556
2.209826 -2.2926621 -0.22188461
0.56634808 -0.70130664 -0.068079703
3.4130728 -3.2434168 -0.38387272
0.6117298 -0.69313926 -0.080799855
0.58052242 -0.71885866 -0.08613921
3.4076047 -3.2383335 -0.46647903
0.58963937 -0.66810906 -0.093657501
0.59372085 -0.67273372 -0.11018555
0.59236377 -0.67119604 -0.12576561
2.5607884 -2.656966 -0.58360189
2.3073635 -2.3941066 -0.58455336
2.0957177 -2.174504 -0.58418781
1.9201387 -1.9923941 -0.58396643
1.8482848 -1.7571476 -0.58286512
1.7142864 -1.6298705 -0.58209968
1.6061332 -1.5272032 -0.58416659
1.5152802 -1.4409157 -0.5875982
4.277637 -4.4708204 0.77542275
3.3900378 -3.5431361 0.52768916
3.3464055 -3.4974113 0.43506774
2.7223158 -2.8451595 0.28419629
3.3872092 -3.2425473 0.2551817
3.2080789 -3.0709603 0.16299966
2.4369633 -2.7817609 0.11408979
2.9843206 -2.8567657 0.078386478
2.4168279 -2.7587767 0.048140664
2.6525629 -2.5391877 0.0045502814
0.58777881 -0.67094165 -0.0041722991
2.5161226 -2.629662 -0.060033113
0.59554309 -0.67980444 -0.02025697
1.7646674 -1.5474628 -0.066420257
2.1944003 -2.293422 -0.10862486
0.5624128 -0.70170474 -0.036087222
2.2572012 -2.1607246 -0.14385876
2.1872044 -2.2859013 -0.16436467
0.55193615 -0.68863326 -0.051056035
2.2520926 -2.1559095 -0.19876951
2.2041669 -2.3036294 -0.22216265
0.56876302 -0.7096023 -0.068682171
3.3925223 -3.2476337 -0.38289759
0.58817881 -0.67139822 -0.078013651
0.56293851 -0.70233548 -0.083911471
3.3899622 -3.245296 -0.46568906
0.57145846 -0.65231216 -0.091148823
0.59648353 -0.68087792 -0.11116064
0.56901836 -0.64952683 -0.12131373
4.2990637 -4.493372 -0.98350042
2.2904029 -2.3940077 -0.5824756
2.0877335 -2.1821706 -0.58418781
1.9101177 -1.9965904 -0.58314049
1.8418322 -1.7639101 -0.58286512
1.7111063 -1.6388294 -0.5830555
1.5921452 -1.525053 -0.58110815
1.5099889 -1.4464598 -0.5875982
4.2530222 -4.4778357 0.77393061
3.3633342 -3.5411191 0.52554929
3.3335645 -3.5096531 0.43506774
3.3781769 -3.2577128 0.25539908
3.2485952 -3.1326425 0.16564052
2.4372454 -2.8027418 0.11458316
2.7895849 -2.6900158 0.073530011
2.4198229 -2.782707 0.048403151
2.6432383 -2.5488927 0.0045502814
0.57481682 -0.66101807 -0.0040974598
0.58779925 -0.67594743 -0.020077704
1.7979392 -1.5883342 -0.067891233
2.5356264 -2.6695654 -0.12599936
0.55734903 -0.70063353 -0.035926834
2.2694008 -2.1883986 -0.14514649
2.1980686 -2.314177 -0.16581739
0.55438048 -0.69690186 -0.051518079
2.2470491 -2.1669204 -0.19902401
2.1874647 -2.3030128 -0.2213285
0.5611921 -0.70543933 -0.068079703
0.59617323 -0.68557715 -0.079406753
0.54796314 -0.68881011 -0.082055025
2.4583225 -2.3707428 -0.33889842
0.56906378 -0.65440226 -0.091148823
0.58877355 -0.67706782 -0.11018555
0.61082095 -0.70242149 -0.13077398
2.5439639 -2.6785307 -0.58422673
2.287039 -2.4080994 -0.58386081
2.0743127 -2.1841128 -0.58266848
1.9027871 -2.0035779 -0.58314049
1.8493865 -1.784186 -0.58732128
1.7106786 -1.6504836 -0.58496714
1.5948952 -1.5389355 -0.58416659
1.5074482 -1.4546585 -0.58868033
3.3154128 -3.5126989 0.60531718
3.3303545 -3.5285299 0.52212548
3.3279912 -3.5259027 0.43578389
2.6590707 -2.8172023 0.27958927
3.3650594 -3.265528 0.2551817
3.2588184 -3.1623189 0.16666752
2.683537 -2.6040728 0.070950009
0.59622961 -0.69000793 0.011969543
2.6237352 -2.5460417 0.0045304545
0.56489158 -0.65374088 -0.00404133
2.1632462 -2.2918918 -0.05198472
0.60658973 -0.70199752 -0.020794764
2.5793631 -2.7327547 -0.1285987
0.56258011 -0.71178794 -0.036408
2.2567794 -2.1899521 -0.14477856
2.2072392 -2.3385007 -0.16706258
0.56209308 -0.71117169 -0.052442171
2.2287714 -2.1628489 -0.19800599
2.1884356 -2.3185792 -0.22216265
0.54907978 -0.69468206 -0.06687475
2.4319079 -2.359977 -0.27628434
0.58620048 -0.67840135 -0.078361928
0.56308419 -0.71240008 -0.084654048
2.4365802 -2.3645937 -0.33692348
0.55139947 -0.63812661 -0.088640139
0.56587744 -0.65488178 -0.10628517
0.59307218 -0.68635386 -0.12743506
2.5165539 -2.6663966 -0.57985288
2.2794623 -2.4152725 -0.58386081
2.0755272 -2.1991868 -0.58494753
1.893797 -2.0066993 -0.58231449
1.8381765 -1.7845547 -0.5855388
1.6971248 -1.6477327 -0.58209968
1.5872777 -1.541244 -0.58314711
1.4918203 -1.4486563 -0.58435178
3.2428153 -3.4611077 0.59437472
3.263016 -3.4826682 0.51356608
3.257843 -3.4770253 0.4282642
2.6405437 -2.8181953 0.27872545
3.3559241 -3.2806315 0.25539908
3.315809 -3.2413032 0.17018867
0.60908294 -0.71012741 0.028861634
2.6568155 -2.5971172 0.070494719
0.59369659 -0.69218862 0.011969543
2.6058049 -2.5472529 0.0045155846
0.56509584 -0.65884304 -0.0040600398
2.2614791 -2.4136279 -0.054557566
0.57797766 -0.67386192 -0.019898439
2.7253065 -2.4408166 -0.10353412
2.5775299 -2.7509418 -0.12900913
0.55996752 -0.71384507 -0.036408
2.2630243 -2.2121747 -0.14569838
2.2450843 -2.3961301 -0.17059061
0.55208868 -0.70380121 -0.051749103
2.2293928 -2.1793747 -0.19876951
2.1853795 -2.3324084 -0.22271876
0.54652995 -0.6966899 -0.06687475
2.4260926 -2.3716614 -0.27660939
0.59408718 -0.69264394 -0.079755031
0.54080373 -0.68939036 -0.081683733
2.4307435 -2.376291 -0.33731845
0.56718612 -0.6612801 -0.091566935
0.56088865 -0.65393788 -0.10579763
0.59055263 -0.68852299 -0.12743506
2.5229716 -2.6929016 -0.58360189
2.2759817 -2.4293609 -0.58524597
2.0593979 -2.1981814 -0.58266848
1.8316234 -1.79128 -0.5855388
1.6910741 -1.653942 -0.58209968
1.576088 -1.5416421 -0.58110815
1.4920063 -1.4595 -0.58651608
3.1895628 -3.4293764 0.58691394
3.1391799 -3.3752053 0.49601921
2.6698627 -2.8705013 0.35235116
2.6383483 -2.8366184 0.27958927
3.3296483 -3.2788973 0.25431228
3.3181477 -3.267458 0.17092223
0.59351718 -0.69713378 0.028244933
2.6415796 -2.6012254 0.070342951
0.59115565 -0.69435996 0.011969543
2.5993013 -2.559593 0.0045205411
0.57564217 -0.67613816 -0.0041535893
2.3133981 -2.0872374 -0.032956369
2.2035885 -2.3691866 -0.0533701
0.59105814 -0.6942454 -0.020436235
2.7222795 -2.4561458 -0.10376043
2.5755975 -2.7691522 -0.12941954
0.55243683 -0.70958525 -0.036087222
2.2435129 -2.2092397 -0.14496253
2.296139 -2.4686923 -0.1751563
0.54950541 -0.70581996 -0.051749103
2.2185457 -2.1847303 -0.198515
2.1822515 -2.3462462 -0.22327486
0.5390721 -0.69239384 -0.066272274
2.4173837 -2.3805375 -0.27660939
0.57604551 -0.6766119 -0.077665374
0.53827333 -0.69136786 -0.081683733
3.292696 -3.2426214 -0.4585793
0.55186456 -0.64820945 -0.089476362
0.54561967 -0.64087433 -0.10335989
0.55721152 -0.65448987 -0.12075724
2.5023222 -2.6905582 -0.58110255
2.2616966 -2.431917 -0.58386081
2.0620253 -2.2172179 -0.58570719
1.8194901 -1.7925079 -0.58375633
1.6822339 -1.657403 -0.58114386
1.5731821 -1.5501231 -0.58212763
1.4866469 -1.4649587 -0.58651608
3.1168141 -3.3723409 0.57547414
3.106966 -3.3616853 0.49259546
2.6202703 -2.8349893 0.34697995
2.6375477 -2.8536825 0.28045309
3.3250051 -3.2949643 0.25474697
2.989857 -2.9627407 0.15449023
0.57841319 -0.68373305 0.027628232
2.6248722 -2.6010664 0.070115305
0.58380491 -0.69010657 0.011864548
2.5798821 -2.5564842 0.0045007141
0.57868201 -0.68405086 -0.0041910089
2.2831392 -2.0729852 -0.032617919
2.3644416 -2.5581968 -0.057460267
0.58370858 -0.68999273 -0.02025697
3.4575727 -3.1393166 -0.1321616
0.54775953 -0.70815587 -0.035926834
2.2422378 -2.2219021 -0.14533046
2.2965062 -2.4846942 -0.17577888
0.54239881 -0.70122546 -0.051287055
2.2173421 -2.197309 -0.19902401
2.2425804 -2.4263496 -0.23022613
0.52225167 -0.67515439 -0.064464845
2.602458 -2.5789454 -0.29871213
0.57391703 -0.67841828 -0.077665374
0.52147782 -0.67415398 -0.079455994
3.3135931 -3.2837701 -0.46292415
0.54982543 -0.64993995 -0.089476362
0.5564245 -0.65774059 -0.10579763
0.56026924 -0.66228545 -0.12187021
2.389276 -2.5852473 -0.55673373
2.2166116 -2.3985047 -0.57416439
2.0523841 -2.2208009 -0.58494753
0.70922756 -0.76745301 -0.22053613
1.8249267 -1.8091966 -0.58732128
1.6742605 -1.659945 -0.58018804
1.5573181 -1.5441642 -0.57804966
1.4847717 -1.4723333 -0.5875982
3.0937002 -3.3720436 0.5734846
3.1053784 -3.3847725 0.49430734
2.6270707 -2.8633306 0.28045309
3.312906 -3.3071289 0.25474697
2.7215352 -2.7166946 0.14113922
0.56819028 -0.67666298 0.02725821
2.6379647 -2.6332726 0.070722364
0.59670359 -0.71061975 0.012179535
2.7625914 -2.52684 0.026529899
2.5761566 -2.5715747 0.0045106276
0.58388752 -0.69535697 -0.0042471387
2.290283 -2.094837 -0.032829449
2.3469379 -2.5580046 -0.057262354
0.58889043 -0.70131499 -0.020525867
2.8559673 -2.6122475 -0.10953119
2.4161522 -2.6334436 -0.12230557
0.53299159 -0.69430703 -0.035124898
2.2340791 -2.2301054 -0.14533046
2.2954855 -2.501925 -0.17640148
0.53982508 -0.70320874 -0.051287055
2.2149241 -2.2110617 -0.19953303
2.2363701 -2.4374931 -0.23050418
0.52463132 -0.68339169 -0.065067321
2.4208748 -2.4166532 -0.27888465
0.55348951 -0.65915567 -0.075227447
0.52627921 -0.68553829 -0.080569863
3.3099861 -3.3043296 -0.46410912
0.54743958 -0.65195084 -0.089476362
0.5463509 -0.65065426 -0.10433499
0.55274367 -0.6582675 -0.12075724
2.3156826 -2.5241153 -0.54173756
2.2024794 -2.4008067 -0.57277918
0.71170139 -0.77581543 -0.22218809
1.8100059 -1.8076067 -0.58464754
1.6736617 -1.6715598 -0.58209968
1.5735407 -1.5717292 -0.5862056
1.471192 -1.4696009 -0.58435178
3.0866652 -3.3892288 0.57447934
3.0768845 -3.3784893 0.49173951
2.596736 -2.8511753 0.34662187
2.595067 -2.8493431 0.27814957
3.3176606 -3.336242 0.25605115
2.6692798 -2.6841359 0.1389385
0.58106494 -0.69716829 0.027998252
3.0289636 -2.7909391 0.10217018
2.6226554 -2.6372521 0.070570596
0.58385205 -0.70051235 0.011969543
2.7533116 -2.5369484 0.026529899
2.5554318 -2.5696545 0.0044908007
0.57365215 -0.68827438 -0.0041910089
2.4178977 -2.2278924 -0.034775525
2.3079233 -2.5340636 -0.056536678
0.59143668 -0.70961249 -0.020705132
2.3338048 -2.5624812 -0.11861178
0.52075475 -0.68353885 -0.034483347
2.2258902 -2.2382786 -0.14533046
2.2889898 -2.5132749 -0.17660901
0.52030391 -0.6829471 -0.049669895
2.20962 -2.2219956 -0.19978753
2.2704113 -2.4928758 -0.234953
0.50278515 -0.65992814 -0.062657423
2.4091899 -2.422683 -0.27855963
0.56127483 -0.67342395 -0.076620549
0.51652205 -0.67795849 -0.079455994
4.1370516 -4.160367 -0.58221006
0.54759336 -0.65700877 -0.089894481
0.5210855 -0.62520432 -0.099947065
0.51989448 -0.6237753 -0.11407942
2.1946862 -2.4099 -0.51549417
0.6822089 -0.74913341 -0.19599539
0.6956774 -0.76394999 -0.2180582
1.7951214 -1.8059317 -0.58197385
1.6593095 -1.6694185 -0.57923216
1.5541368 -1.5637686 -0.58110815
1.4712247 -1.4804461 -0.58651608
3.0760024 -3.3989091 0.57447934
3.0715928 -3.3940365 0.49259546
2.6038058 -2.8770421 0.34877035
2.5887799 -2.8604395 0.2784375
3.7647758 -3.8097243 0.29148099
2.6636438 -2.6953516 0.13908522
0.56867146 -0.68667334 0.027504891
3.0407062 -2.819473 0.10286453
2.6312242 -2.6625459 0.071025893
0.58419955 -0.70542353 0.012022041
2.748261 -2.5483053 0.026558243
2.5557814 -2.5862052 0.0045056711
0.56893575 -0.68699247 -0.0041722991
2.7423103 -2.5427878 -0.039556101
0.58155245 -0.70222723 -0.020436235
2.3074389 -2.1395562 -0.089050665
0.50895637 -0.67242408 -0.033841796
2.2216563 -2.2481027 -0.14551441
0.51815581 -0.6845783 -0.049669895
2.2194641 -2.2459626 -0.20131457
2.2893443 -2.529582 -0.2377335
0.50552392 -0.66786504 -0.0632599
4.0941529 -4.143034 -0.47488403
0.55407321 -0.66904593 -0.075924002
0.51438963 -0.67957783 -0.079455994
0.5607506 -0.67710888 -0.092403159
0.53431255 -0.64518476 -0.10287235
0.53056473 -0.64065933 -0.11686185
0.68512219 -0.75709677 -0.19751474
0.70115209 -0.77483779 -0.22053613
1.8031408 -1.8254334 -0.58643001
1.6622452 -1.6829133 -0.58209968
1.5464984 -1.5658914 -0.58008868
1.4665664 -1.4850608 -0.58651608
3.055567 -3.4013028 0.5729872
3.0697637 -3.4171057 0.49430734
2.5825934 -2.8747118 0.34733802
2.5969424 -2.8906837 0.28045309
3.7312081 -3.8035386 0.28995946
2.6229546 -2.673708 0.13747136
0.58392239 -0.71037304 0.028368274
3.0800297 -2.8770022 0.10455084
2.6214478 -2.6721721 0.071025893
0.57653052 -0.70138043 0.011917045
2.7359796 -2.5556307 0.026529899
2.5518878 -2.6012659 0.0045155846
0.56895399 -0.69216317 -0.0041910089
2.7797396 -2.5965064 -0.040232997
2.1810348 -2.4277325 -0.05383189
0.58659285 -0.7136218 -0.020705132
2.5917773 -2.420934 -0.10036587
2.2735627 -2.5307262 -0.11642286
0.4968867 -0.66150236 -0.033200245
2.3038647 -2.564456 -0.17909938
0.50365156 -0.67050833 -0.048514783
2.2112172 -2.2540822 -0.20131457
2.2880578 -2.5468609 -0.23856765
0.51025945 -0.67928076 -0.06416361
2.3814759 -2.4276416 -0.27725947
0.55414766 -0.67415053 -0.076272279
0.51189542 -0.68145859 -0.079455994
2.3915946 -2.4380417 -0.33889842
0.55068684 -0.66994023 -0.091148823
0.52690208 -0.6410048 -0.10189725
0.52821302 -0.64259964 -0.11686185
0.62920803 -0.70045179 -0.16553111
0.67184514 -0.74791658 -0.19447605
0.69307667 -0.77157921 -0.21888417
1.7882477 -1.8236773 -0.58375633
1.6370305 -1.6695807 -0.57540888
1.5326253 -1.5632632 -0.57703018
1.4638094 -1.493176 -0.5875982
3.0519247 -3.4223976 0.49345139
2.5826461 -2.8960514 0.34877035
2.5757086 -2.888272 0.27930132
3.7088828 -3.8086042 0.28930736
2.618715 -2.6890311 0.1377648
0.57120502 -0.70011699 0.027874911
3.1480939 -2.9622598 0.10722908
2.6088459 -2.6788969 0.070950009
0.5815413 -0.71278602 0.012074539
2.7207682 -2.5601592 0.026473211
2.5507085 -2.6191986 0.0045304545
0.56388462 -0.69114453 -0.0041722991
2.7527266 -2.5902312 -0.039979164
2.2785985 -2.5551076 -0.056470711
0.56880522 -0.69717562 -0.020167336
2.7313955 -2.5701592 -0.10613663
2.2855575 -2.562911 -0.11751732
0.49445882 -0.66331911 -0.033200245
2.196754 -2.2557397 -0.14496253
2.2891328 -2.56692 -0.17868432
0.5011906 -0.67234981 -0.048514783
2.2196507 -2.279331 -0.20284161
0.49823081 -0.66835487 -0.062958658
2.2724307 -2.3335299 -0.265558
0.54915398 -0.67308944 -0.075924002
0.51415503 -0.68971646 -0.080198571
2.3798659 -2.4439392 -0.33850342
0.56331652 -0.69044822 -0.093657501
0.55466682 -0.67984641 -0.10774782
0.53587055 -0.65680808 -0.11908779
0.61530083 -0.69001639 -0.14621291
0.62139273 -0.69687247 -0.16414592
0.65341735 -0.73278707 -0.18991803
0.67982525 -0.76242954 -0.21558027
1.7815516 -1.8302193 -0.58375633
1.6309001 -1.6755695 -0.57540888
1.5322807 -1.5744138 -0.57906914
1.4636981 -1.5040505 -0.58976245
3.0112865 -3.3982584 0.56900811
2.5920308 -2.9250226 0.3512769
2.5745602 -2.9053075 0.28016514
2.7025418 -2.7927053 0.21149217
2.5629973 -2.6484129 0.13527064
0.57655585 -0.71122539 0.028244933
3.1561937 -2.9886317 0.10782425
2.58373 -2.6698365 0.070494719
0.56922436 -0.70218152 0.011864548
2.6952853 -2.5521929 0.026303148
2.5480309 -2.6329477 0.004540368
0.56422943 -0.69601983 -0.0041910089
2.7387669 -2.5933661 -0.039894551
2.2652552 -2.556267 -0.056338768
0.58172184 -0.71759808 -0.020705132
2.7378242 -2.5924733 -0.10670239
0.61510915 -0.69413066 -0.031739254
0.49712974 -0.67129308 -0.033521019
2.1868777 -2.2597587 -0.14477856
2.5645337 -2.8939929 -0.20089015
0.49907589 -0.67392105 -0.048514783
2.2180312 -2.2920303 -0.20335062
0.49612868 -0.66991681 -0.062958658
2.2734058 -2.3492522 -0.26653314
0.54954606 -0.67790681 -0.076272279
0.51672626 -0.69772953 -0.080941156
2.3694081 -2.4485431 -0.33810842
0.55362934 -0.68294382 -0.092403159
0.55502838 -0.68466967 -0.10823536
0.52881563 -0.65233427 -0.11797482
0.61050987 -0.68898898 -0.14558806
0.6113624 -0.68997532 -0.16206811
0.64329869 -0.72601819 -0.187639
0.67742664 -0.76456147 -0.21558027
1.7703707 -1.8302016 -0.58197385
1.6229278 -1.677893 -0.57445306
1.5111933 -1.5625379 -0.57295221
1.4482578 -1.4975688 -0.5854339
0.68416929 -0.77781481 0.12981741
0.65929598 -0.74953693 0.1074209
2.4953833 -2.8368385 0.2726787
2.6867537 -2.7968311 0.21105744
2.5560424 -2.6606715 0.13541736
0.57394522 -0.71333385 0.028244933
3.2233427 -3.0747011 0.1105025
2.5905509 -2.6965926 0.070950009
0.5741688 -0.71361172 0.012022041
2.6974902 -2.5730979 0.026416523
2.5328214 -2.6364999 0.0045304545
0.55916709 -0.69496673 -0.0041722991
2.7205608 -2.5951045 -0.039767634
0.60755306 -0.69068742 -0.015173204
0.56655341 -0.70414692 -0.02025697
2.7138376 -2.5886915 -0.10613663
0.60728019 -0.69037724 -0.031465638
0.49703282 -0.67633122 -0.033681408
2.222872 -2.313863 -0.14772198
0.59626395 -0.67785358 -0.046902038
0.50133204 -0.68218136 -0.048976827
2.2123809 -2.3030231 -0.20360513
0.59825933 -0.68012202 -0.063117549
0.50075614 -0.68137282 -0.063862376
2.2509704 -2.3431935 -0.26490793
0.55455166 -0.68923038 -0.077317104
0.53539252 -0.72850209 -0.084282763
2.3714478 -2.4686933 -0.33968839
0.5660851 -0.70356482 -0.094911844
0.56247044 -0.6990723 -0.11018555
0.51648867 -0.64192337 -0.11574888
0.60276175 -0.68528873 -0.14433837
0.59842205 -0.68037879 -0.15929772
0.62247777 -0.70772904 -0.1823213
0.66428083 -0.75528383 -0.21227635
1.7663516 -1.8394908 -0.58286512
0.71826428 -0.7480576 -0.25520626
0.72594059 -0.75613159 -0.27628124
1.4427593 -1.5028669 -0.5854339
0.68392426 -0.7833069 0.1303148
0.65131289 -0.74595672 0.10656496
0.63411397 -0.72623295 0.086655468
2.6654592 -2.7950978 0.210188
2.5214453 -2.6439872 0.13409694
0.56883198 -0.71230847 0.028121592
3.3850527 -3.252733 0.11645416
2.525449 -2.6481855 0.069432363
0.57154942 -0.71571136 0.012022041
2.6620839 -2.5580246 0.026161429
2.5010567 -2.6226077 0.0044908007
0.55162412 -0.69076025 -0.0041348794
2.6994946 -2.5939732 -0.039598409
0.59975642 -0.68688422 -0.015041264
0.5789414 -0.72496784 -0.020794764
2.6726177 -2.5681467 -0.10489196
0.59159911 -0.67754185 -0.030781604
0.4992606 -0.68460697 -0.034002185
2.2391949 -2.3480196 -0.14937763
0.59377551 -0.68003446 -0.046902038
0.50353432 -0.69046724 -0.049438875
2.1901505 -2.2966719 -0.2023326
0.61413407 -0.70335054 -0.065063909
0.512357 -0.7025395 -0.065669797
2.2478697 -2.3571985 -0.265558
0.55948156 -0.70059961 -0.078361928
0.54210591 -0.74333102 -0.085767917
4.0600038 -4.257617 -0.58379
0.54612583 -0.6838752 -0.091985047
0.54503971 -0.68251514 -0.10726026
0.5264914 -0.65928835 -0.11853131
0.58985215 -0.67558873 -0.14183901
0.5933333 -0.67959988 -0.15860513
0.60438263 -0.69225562 -0.17776327
0.66150814 -0.7577135 -0.21227635
1.740764 -1.8261945 -0.57662648
0.7155177 -0.75068516 -0.25520626
1.4863563 -1.5595737 -0.56785476
1.4398979 -1.5109324 -0.58651608
0.66845506 -0.7704621 0.12782787
0.64635992 -0.74499518 0.10613699
0.63705105 -0.73423988 0.087371625
0.59351176 -0.68405819 0.065362267
2.6539176 -2.8005588 0.20997064
2.5213752 -2.6605997 0.13453707
0.56659138 -0.71409202 0.028121592
3.3719425 -3.2605717 0.11635496
2.4978604 -2.6357865 0.068901189
0.57427019 -0.72376978 0.012127037
2.6626606 -2.5747166 0.02624646
2.4845507 -2.621742 0.0044759307
0.55939609 -0.70502359 -0.0042097187
2.6510773 -2.5635157 -0.039006125
0.60283762 -0.69480687 -0.015173204
0.56423301 -0.71111965 -0.020346602
2.3052406 -2.2291017 -0.090747945
0.59994704 -0.69147527 -0.031328831
0.50883162 -0.70235538 -0.034804121
2.4242046 -2.5580635 -0.16225502
0.59687191 -0.687931 -0.047317103
0.5107339 -0.70498115 -0.050362963
2.2021453 -2.3238239 -0.20411414
0.58577091 -0.67513645 -0.062283397
0.5241881 -0.72352582 -0.067477226
2.2514224 -2.375824 -0.26685816
0.55480099 -0.69923222 -0.078013651
0.52574807 -0.72567898 -0.083540179
3.9918501 -4.2125654 -0.5758903
0.53902948 -0.67935491 -0.091148823
0.55276364 -0.69666451 -0.10921045
0.5145694 -0.64852715 -0.11630537
0.60326147 -0.69534433 -0.14558806
0.58861375 -0.67848468 -0.15791252
0.57904315 -0.66745281 -0.17092621
0.6488657 -0.74796247 -0.20897244
1.7618347 -1.8599643 -0.5855388
0.72651076 -0.76702911 -0.25998542
0.73673511 -0.77790529 -0.28239816
1.4272004 -1.5070605 -0.58326966
0.65526676 -0.76087725 0.12583834
0.63324398 -0.73530501 0.1044251
0.65515417 -0.76071966 0.090236269
0.60141468 -0.69832104 0.06651403
2.6491086 -2.8160853 0.21040536
2.5088677 -2.6669116 0.13439035
0.56149673 -0.71302277 0.027998252
2.938899 -2.8627489 0.1017734
2.4827023 -2.6390979 0.06874942
0.57161355 -0.72586972 0.012127037
2.6245537 -2.5565484 0.025963021
2.461221 -2.6162636 0.0044511468
0.5518589 -0.70078409 -0.0041722991
2.6130121 -2.545306 -0.038583066
0.57418758 -0.66670686 -0.0145135
0.57399338 -0.72889179 -0.020794764
2.6207051 -2.5527995 -0.10353412
0.57914722 -0.67246568 -0.030371182
0.51558578 -0.71719652 -0.035445672
2.4230261 -2.5756626 -0.1628069
0.58652616 -0.68103355 -0.04669451
0.5267942 -0.73278773 -0.052211147
2.1799374 -2.3173416 -0.20284161
0.58329248 -0.67727888 -0.062283397
0.52153277 -0.72544223 -0.067477226
2.2508945 -2.3927715 -0.26783329
0.53744245 -0.68247724 -0.075924002
0.5161103 -0.71789974 -0.08242631
4.0063834 -4.2590604 -0.58023512
0.52423 -0.66569924 -0.08905825
0.52073121 -0.66125619 -0.10335989
0.51218897 -0.65040874 -0.11630537
0.58266181 -0.67659426 -0.14121416
0.58612299 -0.68063754 -0.15791252
0.58428079 -0.67849827 -0.17320524
0.63590461 -0.73847264 -0.20566852
0.71322149 -0.75849503 -0.23795868
0.73167652 -0.77817595 -0.26285288
0.71533334 -0.76087397 -0.27526176
1.4243048 -1.515087 -0.58435178
0.64731574 -0.75724 0.12484356
0.62537628 -0.73157495 0.10356916
0.65495032 -0.76614404 0.090594351
0.62218302 -0.72781366 0.069105484
2.6087832 -2.7936649 0.20801438
2.5154457 -2.6936183 0.13527064
0.56380367 -0.72137624 0.028244933
2.6857817 -2.635443 0.09334188
2.4593649 -2.6335652 0.068370007
0.5664863 -0.72480857 0.012074539
2.6180208 -2.5689523 0.025991365
2.4434252 -2.6164963 0.0044362769
0.55667621 -0.71225679 -0.0042284285
2.6179402 -2.5688729 -0.038794596
0.58733302 -0.68704706 -0.014909322
0.56639284 -0.72468901 -0.020615499
2.6569936 -2.6071947 -0.10534456
0.5896669 -0.68977714 -0.031055218
0.5222379 -0.73209649 -0.036087222
2.4926584 -2.6692169 -0.16814181
0.58143044 -0.68014234 -0.046486977
0.5217858 -0.73146266 -0.051980123
2.1905007 -2.3457391 -0.20462315
0.58339912 -0.68244529 -0.062561452
0.53045231 -0.74358433 -0.068983413
2.2720406 -2.4330575 -0.27140874
0.53493744 -0.68444246 -0.075924002
0.52504039 -0.73599797 -0.084282763
4.0016131 -4.2853527 -0.58181512
0.52668601 -0.67388487 -0.089894481
0.51585925 -0.66003221 -0.10287235
0.51711935 -0.66164452 -0.11797482
0.57504368 -0.67271888 -0.13996449
0.57850492 -0.67679191 -0.15652733
0.57668662 -0.67466474 -0.17168589
0.61793602 -0.72294784 -0.20071267
0.7104367 -0.76110405 -0.23795868
0.7076174 -0.75813675 -0.25520626
0.69934464 -0.74935198 -0.27016431
1.4161149 -1.5174818 -0.58326966
0.61666954 -0.72599512 0.11937233
0.61792552 -0.72747374 0.10271321
0.64222336 -0.75605243 0.089162029
0.6043961 -0.71152061 0.067377843
2.5701089 -2.7696416 0.20562342
2.4743423 -2.6663468 0.13351007
0.55908251 -0.71998608 0.028121592
2.6689529 -2.6354387 0.093044296
2.4374774 -2.626621 0.067990601
0.55684721 -0.71710747 0.011917045
2.5957065 -2.563112 0.025849646
2.4188678 -2.6065676 0.0044065365
0.54216957 -0.69820559 -0.0041348794
2.5956264 -2.5630331 -0.038583066
0.5774039 -0.67974424 -0.014711412
0.55675536 -0.71698916 -0.020346602
2.6402545 -2.6071007 -0.10500511
0.56938034 -0.67029858 -0.030097568
0.51300293 -0.72395045 -0.03560606
2.4951324 -2.6887503 -0.16887768
0.56636024 -0.66674316 -0.04544932
0.51024997 -0.72006547 -0.051056035
2.1722593 -2.3409047 -0.20360513
0.58125228 -0.68427467 -0.062561452
0.51658279 -0.72897536 -0.067477226
2.2996397 -2.4781742 -0.27563426
0.52789664 -0.67982495 -0.075227447
0.52733111 -0.74414283 -0.08502534
3.9773006 -4.286232 -0.58023512
0.50992727 -0.65668404 -0.087385796
0.51621813 -0.66478539 -0.10335989
0.51989704 -0.66952306 -0.11908779
0.58060062 -0.6835559 -0.14183901
0.57382554 -0.67560327 -0.15583473
0.57964891 -0.68245959 -0.17320524
0.59539306 -0.70102102 -0.19410484
0.70804214 -0.76333219 -0.23795868
0.71315616 -0.76889938 -0.25807375
0.69961715 -0.75438136 -0.27118379
1.4034853 -1.5134524 -0.58002329
0.61144614 -0.72521609 0.11887494
0.62550932 -0.74189591 0.1044251
0.62147152 -0.73708069 0.086655468
0.56578004 -0.67102921 0.063346691
2.5112312 -2.7261648 0.20171092
2.4537199 -2.6636379 0.13292322
0.55643988 -0.7220304 0.028121592
2.6677806 -2.6536634 0.09334188
2.4278338 -2.6355371 0.067990601
0.54689074 -0.70963955 0.011759551
2.6118174 -2.5979962 0.026104741
2.3903272 -2.5948219 0.0043718391
0.55181515 -0.71602941 -0.0042284285
2.597558 -2.5838125 -0.038752288
0.58006477 -0.68797129 -0.014843352
0.5541237 -0.71902496 -0.020346602
2.6391857 -2.6252196 -0.10534456
0.5798043 -0.6876623 -0.030781604
0.50804722 -0.72255635 -0.035445672
2.5123336 -2.7272661 -0.1707173
0.57421249 -0.68103027 -0.046279445
0.51449794 -0.73173076 -0.051749103
2.1907108 -2.3782113 -0.20615019
0.58388472 -0.69250184 -0.063117549
0.5230844 -0.74391496 -0.068682171
2.3229544 -2.5217738 -0.27953476
0.51567173 -0.66913015 -0.073834352
0.52460015 -0.74607062 -0.08502534
3.9912286 -4.3329854 -0.58458
0.51480192 -0.66800141 -0.088640139
0.54043639 -0.70126444 -0.10872291
0.51985759 -0.67456162 -0.11964428
0.58063799 -0.6886999 -0.14246385
0.5789634 -0.68673795 -0.15791252
0.57714367 -0.68457949 -0.17320524
0.5827291 -0.69122916 -0.19080092
0.71316367 -0.77452803 -0.24063239
0.70770234 -0.76865065 -0.25711793
0.70732641 -0.76832306 -0.27526176
1.3979287 -1.5185863 -0.58002329
0.62916172 -0.75180215 0.12285402
0.61002392 -0.72893387 0.10228524
0.59575385 -0.71185696 0.083432741
0.57099837 -0.68227696 0.064210512
2.476965 -2.7088225 0.19975467
2.4412432 -2.6696634 0.1327765
0.54650307 -0.7145378 0.027751572
2.643913 -2.6492715 0.092845909
2.4019647 -2.6267097 0.067535304
0.54428607 -0.71163923 0.011759551
2.5881503 -2.5933955 0.025963021
2.1891489 -2.3939815 0.0040199109
0.52974683 -0.69262952 -0.0040787496
2.5682926 -2.5734975 -0.038456146
0.56983882 -0.68089145 -0.014645441
0.53204906 -0.69563961 -0.019629542
2.6267216 -2.632045 -0.10523141
0.57214862 -0.68365139 -0.030507989
0.51682979 -0.740803 -0.036247611
2.5104101 -2.7453022 -0.17126918
0.56145757 -0.67087686 -0.04544932
0.50038821 -0.71723628 -0.050593987
2.2223864 -2.430414 -0.20996779
0.58646464 -0.70075738 -0.063673653
0.51807207 -0.74255598 -0.068380937
2.3056252 -2.5214443 -0.27855963
0.52047831 -0.68051118 -0.074879177
0.51958328 -0.74472207 -0.084654048
3.9296582 -4.297646 -0.57786524
0.50751662 -0.66356415 -0.087803908
0.52339089 -0.68431926 -0.10579763
0.51738167 -0.67646241 -0.11964428
0.58064544 -0.69385338 -0.1430887
0.56885773 -0.67979145 -0.15583473
0.56959009 -0.68066669 -0.17168589
0.57265675 -0.68435568 -0.18832299
0.6997968 -0.76562357 -0.23706746
0.70225996 -0.76837224 -0.25616208
0.70972419 -0.77662081 -0.27730072
1.3897558 -1.520857 -0.57894111
0.62679678 -0.753775 0.12285402
0.5848456 -0.70332527 0.098433495
0.5909673 -0.71066183 0.083074659
0.56885213 -0.68406743 0.064210512
2.4684427 -2.7165906 0.19975467
2.4167147 -2.6595693 0.13189621
0.532161 -0.70033449 0.027134869
2.6383929 -2.6604037 0.092945099
0.53478819 -0.70379186 0.011602057
2.5968895 -2.6185541 0.026133085
2.1681671 -2.3860452 0.0039951275
0.52756828 -0.69429034 -0.0040787496
2.5686445 -2.5900733 -0.038583066
0.57281131 -0.68882859 -0.014777382
0.53469992 -0.70367575 -0.019808806
2.6353328 -2.6573181 -0.10591032
0.56488597 -0.67929798 -0.030234376
0.49856409 -0.71942759 -0.035124898
2.528645 -2.7827475 -0.17310882
0.57467175 -0.69106585 -0.04669451
0.49585789 -0.71552253 -0.050362963
2.2335317 -2.4580646 -0.21174933
0.56640077 -0.68111962 -0.061727297
0.51346469 -0.74090159 -0.068079703
2.3003736 -2.5316257 -0.27888465
0.50869435 -0.66945189 -0.073486075
0.50136089 -0.72343642 -0.082055025
3.8947229 -4.2864027 -0.57470536
0.50783628 -0.66832268 -0.088222019
0.50682634 -0.66699356 -0.10287235
0.51046091 -0.67177671 -0.11853131
0.56583261 -0.68048471 -0.13996449
0.56671929 -0.68157524 -0.15583473
0.56744891 -0.68245274 -0.17168589
0.56299734 -0.67712301 -0.18584506
0.68427926 -0.7533856 -0.2326113
0.69984257 -0.77057469 -0.25616208
0.70208025 -0.77311987 -0.27526176
1.3694386 -1.5081103 -0.57244831
0.5886597 -0.71321321 0.11589064
0.56201124 -0.6809262 0.095009722
0.58835864 -0.71282309 0.083074659
0.57903928 -0.7015323 0.06565021
2.4236922 -2.6870637 0.19692898
2.3855319 -2.6446636 0.13072251
0.5319978 -0.70547241 0.02725821
2.6230137 -2.6643569 0.092746712
2.1804497 -2.4173043 0.061768245
0.52498055 -0.69616699 0.011444563
2.57605 -2.616653 0.026019709
2.1835196 -2.4207077 0.0040397379
0.51538664 -0.68344468 -0.0040039103
2.5591342 -2.5994706 -0.038583066
0.57028282 -0.69092339 -0.014777382
0.51526284 -0.68328053 -0.019181378
2.6255755 -2.6669593 -0.10591032
0.5700267 -0.69061309 -0.030644797
0.49592391 -0.72125012 -0.035124898
0.57213503 -0.69316745 -0.04669451
0.49096951 -0.71404463 -0.050131943
0.56390053 -0.683191 -0.061727297
0.50848579 -0.73949194 -0.067778461
2.2643766 -2.5104358 -0.27563426
0.50863647 -0.67449343 -0.073834352
0.50096256 -0.72855091 -0.08242631
0.50538337 -0.67017949 -0.088222019
0.53067285 -0.70371544 -0.10823536
0.51515019 -0.6831311 -0.12020076
0.5683645 -0.68864822 -0.14121416
0.56672502 -0.68668622 -0.15652733
0.56744355 -0.6875568 -0.17244557
0.56549412 -0.68521917 -0.187497
0.68934691 -0.76457691 -0.235285
0.71001756 -0.78755873 -0.26094124
0.71219081 -0.79005247 -0.28035918
0.87403166 -0.96965498 -0.36684307
0.59358728 -0.72457671 0.11738279
0.57715398 -0.70451701 0.098005526
0.58069253 -0.70881116 0.082358502
0.56129402 -0.68513274 0.063922569
2.4058347 -2.6870019 0.1962769
0.527013 -0.70421654 0.027134869
2.6160257 -2.6768126 0.092845909
2.1555686 -2.407403 0.061312951
0.51523608 -0.68847978 0.011287069
2.5748293 -2.6346591 0.026104741
2.1906424 -2.4465744 0.0040694783
0.50808495 -0.67892408 -0.0039664907
2.5495894 -2.6088328 -0.038583066
0.57281578 -0.69919652 -0.014909322
0.51035899 -0.68196279 -0.019091746
2.593426 -2.653688 -0.10500511
0.56242472 -0.68651295 -0.030371182
0.49778187 -0.72966623 -0.035445672
2.2789509 -2.5452001 -0.15728803
0.56959063 -0.69525981 -0.04669451
0.48609865 -0.71254051 -0.049900919
2.3006632 -2.5695393 -0.21989354
0.55633515 -0.67907977 -0.061171193
0.50577199 -0.74135065 -0.067778461
3.8454738 -4.2948899 -0.47000843
0.5085485 -0.6795435 -0.074182622
0.4915553 -0.72051209 -0.08131244
0.50530714 -0.67521226 -0.088640139
0.52095371 -0.69611984 -0.10677272
0.50314951 -0.67232919 -0.11797482
0.56333292 -0.68767047 -0.14058933
0.55172199 -0.67352074 -0.15306434
0.55994242 -0.68355596 -0.17092621
0.55553859 -0.67820406 -0.18501908
0.68133891 -0.76128697 -0.23350254
0.69935566 -0.78147274 -0.25807375
0.69897342 -0.78112793 -0.27628124
0.68559289 -0.7662285 -0.28892949
0.57878035 -0.71104729 0.11489587
0.56238461 -0.69090474 0.095865667
0.58349299 -0.71681136 0.083074659
0.56921345 -0.69926918 0.065074332
2.3787968 -2.6736588 0.19475538
2.1681926 -2.4368637 0.11971892
0.50332904 -0.6769923 0.026024807
2.5936737 -2.6706748 0.092349932
2.1692622 -2.4380655 0.06192001
0.51068425 -0.6868853 0.011234571
2.5665395 -2.6427352 0.026104741
2.1935809 -2.4653978 0.0040893052
0.50356299 -0.67730695 -0.0039477809
2.5385945 -2.6139603 -0.038540758
0.57061636 -0.70099264 -0.014909322
0.51537198 -0.6931904 -0.019360643
0.56531268 -0.69447714 -0.030644797
0.48876104 -0.7213003 -0.034964509
2.2735999 -2.5553322 -0.15747198
0.57496893 -0.70633972 -0.047317103
0.4883379 -0.72067583 -0.050362963
0.56175625 -0.69010812 -0.062005349
0.49896547 -0.73633206 -0.067175984
0.50641114 -0.6811378 -0.074182622
0.50046033 -0.73853803 -0.083168894
0.64292675 -0.72264564 -0.095981717
0.50318342 -0.67679644 -0.088640139
0.52113301 -0.70093912 -0.10726026
0.51757848 -0.69615817 -0.12187021
0.55119342 -0.67718017 -0.13808995
0.55209023 -0.6783061 -0.15375693
0.56275034 -0.69140333 -0.17244557
0.55587578 -0.68298149 -0.18584506
0.67894387 -0.76342374 -0.23350254
0.69689715 -0.78366596 -0.25807375
0.70165634 -0.78910094 -0.27832022
0.69341725 -0.77988988 -0.29325804
0.58864152 -0.72860032 0.11738279
0.57234514 -0.70842922 0.098005526
0.58586925 -0.72514296 0.083790824
0.55912483 -0.6920408 0.064210512
2.3584056 -2.6703849 0.19388594
2.1645389 -2.4507861 0.12001235
0.51271272 -0.69491863 0.026641509
2.5921938 -2.6887996 0.092647515
2.3456323 -2.6558285 0.067231774
0.51053786 -0.69197088 0.011287069
2.5734932 -2.6694019 0.026274804
0.60637254 -0.68656176 0.001135092
0.49870238 -0.67592937 -0.0039290707
2.5317729 -2.6261268 -0.038583066
0.5705567 -0.70619029 -0.014975294
0.51045364 -0.69185674 -0.019271011
2.1923378 -2.2740417 -0.089390121
0.56527579 -0.69965404 -0.030781604
0.49503359 -0.73635453 -0.03560606
0.62424719 -0.70680022 -0.043415174
0.56735539 -0.70222795 -0.046902038
0.50351679 -0.74897319 -0.052211147
0.59984744 -0.67919761 -0.057772953
0.56173086 -0.69526631 -0.062283397
0.50293952 -0.74808621 -0.068079703
0.59379935 -0.67234945 -0.073134087
0.50627702 -0.68619585 -0.0745309
0.49775007 -0.74036735 -0.083168894
0.59811586 -0.67726076 -0.089661933
0.52195555 -0.70744616 -0.092403159
0.51148915 -0.69326019 -0.10579763
0.51502341 -0.6980505 -0.12187021
0.55863911 -0.69148898 -0.14058933
0.55950308 -0.6925832 -0.15652733
0.55527669 -0.68735147 -0.17092621
0.54844999 -0.67892528 -0.1841931
0.68388331 -0.77467698 -0.23617622
0.68887925 -0.78039116 -0.25616208
0.68340206 -0.77426803 -0.2722033
0.65997612 -0.74777997 -0.28027242
0.57355261 -0.71527082 0.11489587
0.55730498 -0.69500858 0.095865667
0.57323819 -0.71485317 0.082358502
0.56407231 -0.7034229 0.065074332
2.314374 -2.639967 0.19106025
2.4375012 -2.7803183 0.13571079
0.49835294 -0.68066365 0.026024807
2.5574384 -2.6722817 0.091754772
0.60374391 -0.68865615 0.017377062
0.50563544 -0.69061029 0.011234571
2.5222085 -2.6354697 0.025849646
0.59857827 -0.68276405 0.0011251785
0.49622163 -0.67775267 -0.0039290707
0.56296051 -0.70203644 -0.014843352
0.50555205 -0.69049639 -0.019181378
2.1922817 -2.2907276 -0.089729577
0.56270766 -0.70172113 -0.030781604
0.49233139 -0.73816395 -0.03560606
0.58477479 -0.66701919 -0.040839698
0.56477779 -0.70430267 -0.046902038
0.48525777 -0.72755831 -0.050593987
0.5815649 -0.66338122 -0.056245916
0.57415676 -0.71599871 -0.063951701
0.48470151 -0.72669685 -0.065971039
0.6018436 -0.68651277 -0.074434251
0.51552862 -0.70412266 -0.076272279
0.49724314 -0.74550003 -0.083540179
0.62449265 -0.71237326 -0.094006784
0.51935911 -0.70935446 -0.092403159
0.51832622 -0.70794374 -0.10774782
0.51948148 -0.70952159 -0.12353967
0.54621464 -0.68120241 -0.13808995
0.55203205 -0.68848205 -0.15514213
0.5478403 -0.68325418 -0.16940688
0.55085438 -0.68703789 -0.18584506
0.6707595 -0.76544732 -0.2326113
0.66809607 -0.7624616 -0.24947129
0.67546183 -0.77094913 -0.27016431
0.64961821 -0.74150437 -0.27702603
0.57872218 -0.72638178 0.11638802
0.56998801 -0.71541911 0.098433495
0.57843727 -0.72599816 0.083432741
0.55440134 -0.69583058 0.064210512
0.60390657 -0.69322306 0.033744305
0.50797069 -0.69839245 0.026641509
2.5517862 -2.6832006 0.091853961
0.59895051 -0.68753397 0.017301179
0.51052123 -0.70189905 0.011392065
2.5028903 -2.6317868 0.02573627
0.58329314 -0.66956097 0.0011003949
0.49644276 -0.68254304 -0.0039477809
2.2381985 -2.3534636 -0.034352466
0.5632444 -0.70692956 -0.014909322
0.51043701 -0.70178324 -0.019450275
2.515729 -2.6452863 -0.10330782
0.55800927 -0.70035887 -0.030644797
0.49221721 -0.74303901 -0.035766449
0.58267641 -0.66885298 -0.040839698
0.56754076 -0.71232194 -0.047317103
0.48738039 -0.7357375 -0.051056035
0.5899663 -0.6772449 -0.057263941
0.55201226 -0.69283205 -0.061727297
0.48902458 -0.73819155 -0.06687475
0.61015874 -0.70042461 -0.075734414
0.52972132 -0.72829664 -0.078710206
0.49709818 -0.75037873 -0.083911471
0.61179358 -0.70232606 -0.092426836
0.54754734 -0.75280505 -0.09783864
0.52544081 -0.72241145 -0.109698
0.53355962 -0.73357373 -0.12743506
0.54653376 -0.68600512 -0.13871481
0.55477589 -0.69637555 -0.15652733
0.54569107 -0.68497193 -0.16940688
0.54137737 -0.67958152 -0.18336712
0.67091221 -0.7704916 -0.23350254
0.67845029 -0.77920341 -0.25425044
0.66541719 -0.76431566 -0.26710585
0.64475703 -0.74063706 -0.27594391
0.56867063 -0.71915829 0.11489587
0.55749488 -0.70502508 0.096721612
0.56835908 -0.7187385 0.082358502
0.55184728 -0.69785786 0.064210512
0.59825289 -0.69186115 0.049775649
0.61966401 -0.71659714 0.034771305
0.50540757 -0.70024955 0.026641509
2.4952686 -2.6431043 0.090167657
0.60950607 -0.7048502 0.017680591
0.51262677 -0.71025181 0.011497062
2.487736 -2.6351256 0.025679583
0.58345157 -0.67471999 0.0011053516
0.50096059 -0.69408822 -0.0040039103
2.4135237 -2.5565164 -0.037186969
0.55816889 -0.70585209 -0.014843352
0.50786144 -0.7036494 -0.019450275
2.5636575 -2.7155454 -0.10568402
0.54552001 -0.68985653 -0.030097568
0.48290545 -0.73481786 -0.035285283
0.58544821 -0.67702901 -0.041207623
0.56244844 -0.71126395 -0.04710957
0.47371489 -0.72083294 -0.049900919
0.58748007 -0.67940265 -0.057263941
0.56184459 -0.71050042 -0.063117549
0.48850629 -0.74331218 -0.067175984
0.60237211 -0.69662488 -0.075084336
0.52704847 -0.73023331 -0.078710206
0.48996982 -0.74553907 -0.083168894
0.60661185 -0.70155269 -0.092031851
0.52383125 -0.72577584 -0.09407562
0.53905404 -0.74686724 -0.11311083
0.54245836 -0.75158393 -0.13021749
0.54156524 -0.68490458 -0.13808995
0.54244602 -0.68604308 -0.15375693
0.5358696 -0.67772567 -0.16712786
0.53645557 -0.67849112 -0.18254115
0.657884 -0.76114476 -0.22993761
0.65019166 -0.75229818 -0.24469215
0.64996612 -0.7521168 -0.2620084
0.63700259 -0.73716784 -0.27377963
0.57093167 -0.7274822 0.11589064
0.56718379 -0.72270668 0.098861471
0.57064027 -0.72708476 0.083074659
0.55174893 -0.70301425 0.064498447
0.63473362 -0.73951095 0.05303606
0.63786155 -0.74312896 0.035945021
0.49585378 -0.69234592 0.026271489
2.4746268 -2.6405613 0.089770883
0.59649932 -0.69494069 0.017377062
0.51467782 -0.71862936 0.011602057
2.4671204 -2.6325517 0.025566207
0.594001 -0.69203001 0.0011301353
0.49841329 -0.69591963 -0.0040039103
2.4451635 -2.6091225 -0.037821557
0.54570109 -0.69530839 -0.01457947
0.52856374 -0.73801786 -0.020346602
2.4415877 -2.6053069 -0.10104478
0.54545605 -0.69499612 -0.030234376
0.46711236 -0.7164942 -0.034322958
0.58816791 -0.68523425 -0.041575547
0.5573715 -0.71017832 -0.046902038
0.4819741 -0.73929036 -0.051056035
0.58498597 -0.68155134 -0.057263941
0.53706437 -0.68430382 -0.060615093
0.48795703 -0.74843889 -0.067477226
0.59721822 -0.69580275 -0.07475929
0.5313291 -0.74187905 -0.079755031
0.49593461 -0.76067507 -0.084654048
0.60144401 -0.70075089 -0.091636866
0.51885134 -0.72445673 -0.093657501
0.52937794 -0.7391547 -0.11164819
0.53278077 -0.74390596 -0.12854804
0.53661215 -0.6837768 -0.13746512
0.54722422 -0.69732428 -0.15583473
0.54550427 -0.69513255 -0.17092621
0.53154904 -0.67737377 -0.18171516
0.6500116 -0.7576319 -0.22815515
0.65248805 -0.76057208 -0.2466038
0.64216846 -0.74862242 -0.25996944
0.62426805 -0.72780597 -0.26945111
0.56376237 -0.72301239 0.11489587
0.55268306 -0.70880347 0.096721612
0.56590348 -0.72573221 0.082716584
0.55199093 -0.70789033 0.064786389
0.60648888 -0.71111196 0.050862454
0.58883226 -0.69038498 0.033304162
0.49831173 -0.70041573 0.026518168
2.4608686 -2.6424699 0.089572497
0.5943132 -0.6968112 0.017377062
0.52864808 -0.74305582 0.011969543
2.4479339 -2.6285806 0.025452832
0.591824 -0.69389272 0.0011301353
0.53796303 -0.75614876 -0.0043406878
2.4260511 -2.6050832 -0.037652332
0.5582701 -0.71594292 -0.014975294
0.56565285 -0.79506892 -0.021870356
2.3870664 -2.5632215 -0.099121198
0.5383535 -0.69040126 -0.029960761
0.46920359 -0.72466809 -0.034643732
0.58601224 -0.68707865 -0.041575547
0.55022496 -0.70562559 -0.046486977
0.46445668 -0.7173366 -0.049438875
0.58284193 -0.68338573 -0.057263941
0.54227304 -0.69542783 -0.061449245
0.47693184 -0.73657584 -0.066272274
0.58985513 -0.69160879 -0.074109212
0.50820559 -0.71432233 -0.076620549
0.48921311 -0.75554311 -0.083911471
0.58890784 -0.69052249 -0.090056919
0.50273609 -0.70663452 -0.091148823
0.53856093 -0.75698912 -0.11408592
0.53503364 -0.75203127 -0.12966101
0.52717328 -0.67611206 -0.1355906
0.54018611 -0.69282633 -0.15444954
0.5336588 -0.68445456 -0.16788752
0.53663772 -0.68830001 -0.1841931
0.63497925 -0.74483293 -0.22369899
0.6324572 -0.74192703 -0.239913
0.63228625 -0.74180514 -0.25691095
0.63197011 -0.74148667 -0.27377963
0.56596667 -0.73135155 0.11589064
0.54764748 -0.70767915 0.096293636
0.565678 -0.73095214 0.083074659
0.54450917 -0.70359844 0.064210512
0.59613645 -0.70418483 0.050210372
0.60437757 -0.71389437 0.034331162
0.50035274 -0.70876986 0.026764849
2.440309 -2.6397264 0.089175716
0.59433937 -0.70203716 0.017452944
0.54668111 -0.77439588 0.012442025
2.4165611 -2.6140382 0.025226079
0.58927679 -0.6960572 0.0011301353
0.55364275 -0.78425729 -0.0044903667
2.3947656 -2.5904613 -0.037313886
0.54095566 -0.69900674 -0.01457947
0.55350977 -0.78406894 -0.021511827
2.3477993 -2.5396571 -0.097876526
0.52603275 -0.67972374 -0.029413532
0.47302419 -0.73647153 -0.035124898
0.58349007 -0.68922192 -0.041575547
0.5378558 -0.69500113 -0.045656852
0.46398243 -0.72239405 -0.049669895
0.57775402 -0.68247062 -0.057009436
0.52262533 -0.6753208 -0.059502888
0.47207335 -0.73496294 -0.065971039
0.58216441 -0.68768042 -0.073459134
0.51707458 -0.73245704 -0.078361928
0.48644063 -0.75733107 -0.083911471
0.57865757 -0.6835621 -0.088871963
0.50702542 -0.71822202 -0.092403159
0.53578281 -0.75895798 -0.11408592
0.52085155 -0.73780721 -0.12687857
0.52710956 -0.68116432 -0.13621543
0.54246509 -0.70103294 -0.15583473
0.53354996 -0.68951184 -0.1686472
0.52692598 -0.68097621 -0.18171516
0.632245 -0.74715525 -0.22369899
0.63726032 -0.75313538 -0.24278049
0.62706488 -0.74116474 -0.25589147
0.62178671 -0.73497826 -0.27053323
0.56124711 -0.72997952 0.11539325
0.5478456 -0.71254903 0.096721612
0.55852211 -0.72640908 0.082358502
0.53743243 -0.69897997 0.063634634
0.58363688 -0.69382811 0.049340926
0.59441221 -0.70661277 0.033891018
